# .PCD v0.7 - Point Cloud Data file format
VERSION 0.7
FIELDS x y z
SIZE 4 4 4
TYPE F F F
COUNT 1 1 1
WIDTH 1482
HEIGHT 1
VIEWPOINT 0 0 0 1 0 0 0
POINTS 1482
DATA ascii
-4.2197766 1.0889521 0.22839414
-3.1480184 0.81237501 -0.63195944
-4.2228026 1.0905179 0.38156784
-3.7179835 0.96084297 -0.6082173
-4.1992698 1.0860054 0.53256911
-4.2432814 1.0981766 -0.53817511
-4.2070246 1.0895765 0.6883117
-4.246922 1.1007017 -0.38383389
-4.1867185 1.0850984 0.84070444
-4.220377 1.0946069 -0.2284988
-4.196888 1.0892975 1.0010322
-4.2232065 1.0969152 -0.076162301
-4.1750965 1.0851961 1.1558858
-2.32883 0.60878533 -0.64497709
-4.2176094 1.1025358 0.076092489
-2.6884358 0.70329195 -0.64156049
-4.2217464 1.1051918 0.22870816
-3.1374233 0.82191676 -0.63043296
-4.2264862 1.1080101 0.38226506
-3.766026 0.98799795 -0.61666471
-4.2031341 1.102671 0.53354406
-4.2490215 1.115502 -0.53939372
-4.1898212 1.1007426 0.68612164
-4.2430539 1.1155186 -0.38383389
-4.1979036 1.1044316 0.84375745
-4.2279248 1.1131201 -0.22912684
-4.1928678 1.1046716 1.0010322
-4.2193522 1.1116494 -0.076162301
-4.1712832 1.0997635 1.1558858
-2.3117521 0.61294985 -0.64083594
-4.2096744 1.1169611 0.076022685
-2.6745389 0.71014029 -0.63886106
-4.2255845 1.121972 0.22912684
-3.1098683 0.82630944 -0.62547189
-4.2110395 1.1196836 0.38121921
-3.8255501 1.0178998 -0.62698942
-4.2144103 1.1221551 0.53549391
-4.2431841 1.1298167 -0.53915
-4.1974063 1.1184119 0.68799889
-4.2275839 1.127243 -0.382788
-4.1902285 1.118067 0.84299421
-4.2394509 1.1319925 -0.22996421
-4.196712 1.1205807 1.0028318
-4.221242 1.1279197 -0.076267019
-4.1711512 1.1153165 1.1569211
-2.2910502 0.61559963 -0.63565958
-4.202085 1.1298764 0.075952873
-2.6778147 0.72052461 -0.64021075
-4.2295551 1.1380543 0.22954552
-3.0805709 0.82947159 -0.62012929
-4.2149997 1.1357156 0.38191649
-3.8240607 1.0310946 -0.62730229
-4.2144985 1.1371588 0.53598142
-4.2566628 1.1485355 -0.54134369
-4.1955814 1.1328399 0.6883117
-4.235363 1.1443745 -0.38383389
-4.1827073 1.1309304 0.84223092
-4.2318182 1.1450019 -0.22975488
-4.2004972 1.1365273 1.0046314
-4.223269 1.1434796 -0.076371737
-4.178618 1.1321729 1.160027
-2.2945881 0.62471616 -0.63721251
-4.2137499 1.1480091 0.076232105
-2.6716504 0.72837555 -0.63931096
-4.2313375 1.1543884 0.22985955
-3.0607569 0.83503205 -0.61669469
-4.2208204 1.1523097 0.382788
-3.8110924 1.0411671 -0.62573791
-4.1877265 1.1448466 0.53305656
-4.2487984 1.1623396 -0.54085618
-4.2049379 1.1511295 0.69050181
-4.2392311 1.1605175 -0.38453114
-4.1865082 1.1468697 0.84375745
-4.2202935 1.1569167 -0.2293362
-4.2040215 1.1532451 1.006431
-4.2308216 1.1613908 -0.076581158
-4.1783662 1.1477755 1.1610622
-2.2812202 0.62963754 -0.6341067
-4.2097168 1.1627119 0.076232105
-2.67097 0.7382161 -0.63976085
-4.2176576 1.1664888 0.2293362
-3.0578237 0.8457104 -0.61669469
-4.2225327 1.1686313 0.38331094
-3.7979162 1.0518279 -0.62417358
-4.1990094 1.1636981 0.53500646
-4.2447152 1.1771636 -0.54085618
-4.1970882 1.1647443 0.68987608
-4.2389941 1.1763737 -0.38487977
-4.1862621 1.1625259 0.84452063
-4.2239265 1.1737803 -0.22975488
-4.1924605 1.1658245 1.0046314
-4.2228889 1.1750811 -0.076511353
-4.1817784 1.1644268 1.1631329
-2.2734272 0.63603526 -0.63255376
-4.2171865 1.1806343 0.076441541
-2.6496119 0.74227756 -0.63526183
-4.2154832 1.1817433 0.22944085
-3.0151551 0.84525049 -0.60868073
-4.2203455 1.1839019 0.38348526
-3.7942216 1.0650778 -0.62417358
-4.2140322 1.1837176 0.53744388
-4.2501354 1.1946592 -0.54207492
-4.1872916 1.1777821 0.68893749
-4.238698 1.1922414 -0.38522837
-4.1935177 1.1803243 0.84681034
-4.2274933 1.1906835 -0.23017356
-4.1958685 1.1825656 1.006431
-4.2149119 1.188728 -0.076441541
-4.1776881 1.1790169 1.1631329
-2.2730517 0.64449471 -0.63307142
-4.2168875 1.1964386 0.076511353
-2.6432555 0.75045747 -0.63436204
-4.2247806 1.2002727 0.23017356
-3.0216284 0.85845357 -0.61058879
-4.2161875 1.1986256 0.38348526
-3.7790809 1.0750728 -0.62229639
-4.2098746 1.1984202 0.53744388
-4.2478485 1.2100307 -0.54231864
-4.1945534 1.1956406 0.69081473
-4.2306786 1.2059379 -0.38487977
-4.1893721 1.1949553 0.84681034
-4.2386761 1.2098173 -0.23101093
-4.1954622 1.1982762 1.0073309
-4.2222733 1.2067307 -0.07665097
-4.1624036 1.1904045 1.160027
-2.272645 0.65295821 -0.63358909
-4.2088413 1.2100459 0.076441541
-2.6293828 0.75644761 -0.63166261
-4.2340002 1.2188793 0.23090626
-2.9997473 0.86356395 -0.6067726
-4.215807 1.2144387 0.38383389
-3.7639163 1.0849758 -0.62041914
-4.2056661 1.2131072 0.53744388
-4.2550426 1.2281542 -0.5437811
-4.1979451 1.2124686 0.69206619
-4.2379274 1.2240164 -0.38592559
-4.1776314 1.2073903 0.84528393
-4.2305899 1.2234961 -0.2308016
-4.1949978 1.2139974 1.0082307
-4.2257185 1.2236859 -0.076790586
-4.1656442 1.2070775 1.1620976
-2.281481 0.66412693 -0.63669485
-4.2122717 1.2269673 0.076581158
-2.6042759 0.75907695 -0.6262638
-4.2258854 1.232533 0.2306969
-3.0042539 0.87622875 -0.60829914
-4.2249303 1.2330545 0.38505405
-3.7525218 1.095892 -0.61916769
-4.1975951 1.2266669 0.53695637
-4.2564449 1.2446721 -0.54451227
-4.2031665 1.2298876 0.69363046
-4.2374539 1.2399205 -0.38627425
-4.1809282 1.2241725 0.84681034
-4.2262931 1.2382573 -0.2308016
-4.192605 1.2291816 1.0086806
-4.2406092 1.2440581 -0.077139638
-4.1725273 1.2248771 1.1652035
-2.2902668 0.67536527 -0.63980073
-4.213717 1.2433614 0.076685868
-2.5903964 0.76485193 -0.62356436
-4.2158113 1.245579 0.23038292
-3.0068252 0.88837904 -0.60944396
-4.2186899 1.2472302 0.38487977
-3.7562504 1.1112256 -0.62041914
-4.2047081 1.2446926 0.53841883
-4.2539783 1.2600852 -0.544756
-4.2026362 1.245675 0.69425625
-4.2407408 1.2569693 -0.38697147
-4.1916871 1.2432253 0.84986329
-4.2219448 1.2530024 -0.2308016
-4.1864209 1.2432534 1.0082307
-4.2170725 1.2531581 -0.076790586
-4.175633 1.2416369 1.167274
-2.2749381 0.67948508 -0.63617724
-4.2170153 1.2603531 0.0768255
-2.5895779 0.77444798 -0.62401426
-4.2152643 1.2614316 0.23059224
-2.9980636 0.89718026 -0.60829914
-4.2162189 1.2625201 0.38505405
-3.7466719 1.1226298 -0.61948055
-4.2117467 1.2627831 0.53988123
-4.2495537 1.2749268 -0.544756
-4.1906943 1.2580653 0.69300479
-4.2401443 1.2729105 -0.38732013
-4.1948423 1.2601099 0.85138983
-4.229022 1.2711809 -0.23142964
-4.187654 1.2595432 1.0095805
-4.2126722 1.2678709 -0.076790586
-4.1749735 1.2573184 1.1683092
-2.2817979 0.69021928 -0.63876545
-4.2087617 1.2739068 0.076755688
-2.5961843 0.78630632 -0.6262638
-4.222527 1.2788768 0.23122028
-3.0118229 0.91276544 -0.61173368
-4.2098799 1.2766519 0.38487977
-3.7502913 1.1379948 -0.62073201
-4.2187095 1.2809376 0.54134369
-4.2396035 1.2872816 -0.54402483
-4.1921692 1.2736782 0.69394338
-4.2242379 1.2842255 -0.38627425
-4.1941748 1.2758868 0.852153
-4.2322016 1.2882617 -0.23184831
-4.1890469 1.2751256 1.0109302
-4.2180099 1.2847472 -0.076965116
-4.1707807 1.2711563 1.1683092
-2.2813437 0.69834715 -0.63928306
-4.2102504 1.2896137 0.076860398
-2.5749307 0.78920078 -0.62176478
-4.2335396 1.2975544 0.23205765
-3.0313034 0.92965585 -0.6163131
-4.2113371 1.2923589 0.38540271
-3.7332785 1.1463661 -0.61854196
-4.2030535 1.2914222 0.53988123
-4.2504916 1.305998 -0.54597467
-4.1992517 1.2910562 0.69582063
-4.2313819 1.3017418 -0.38732013
-4.1861682 1.2886331 0.85138983
-4.2279062 1.3022892 -0.23184831
-4.1959696 1.292452 1.0136294
-4.2194595 1.3004928 -0.077069834
-4.1665425 1.2849803 1.1683092
-2.2900875 0.70933813 -0.64238888
-4.2040405 1.3029767 0.0768255
-2.549964 0.79080856 -0.61636597
-4.2308922 1.3129164 0.23216233
-3.0713301 0.95308501 -0.6250903
-4.2222505 1.311044 0.38679719
-3.7370019 1.1610844 -0.61979342
-4.202539 1.3065307 0.54036868
-4.2402205 1.3190582 -0.54524344
-4.2022643 1.308054 0.69707209
-4.2306161 1.3176903 -0.38766876
-4.1818719 1.3025081 0.85138983
-4.2235646 1.3163025 -0.23184831
-4.183991 1.3047704 1.0118299
-4.226347 1.3187884 -0.077279255
-4.1657195 1.300668 1.1693444
-2.3022182 0.72235376 -0.64653003
-4.2109141 1.3212345 0.07703492
-2.5434694 0.79853737 -0.61546612
-4.2091341 1.3222909 0.23122028
-3.0940368 0.97257787 -0.63043296
-4.2231188 1.3283029 0.38732013
-3.7346053 1.1753674 -0.62010628
-4.2093139 1.3247691 0.54183114
-4.2469511 1.337428 -0.5467059
-4.2014408 1.323902 0.69769776
-4.2373915 1.3360445 -0.38871458
-4.1920481 1.3225522 0.85444272
-4.2263303 1.3341779 -0.23226699
-4.1754646 1.3189229 1.0109302
-4.2274384 1.3353401 -0.077383965
-4.1722064 1.3186947 1.1724503
-2.2904763 0.72746181 -0.64394182
-4.2136674 1.3390822 0.077174544
-2.5516682 0.81139761 -0.61816555
-4.2042594 1.3377084 0.23122028
-3.1280396 0.9952774 -0.63806528
-4.2260504 1.345454 0.38801736
-3.7342441 1.1895957 -0.62073201
-4.2082129 1.341393 0.54231864
-4.2458034 1.3541924 -0.54719341
-4.1890321 1.3368909 0.6964463
-4.2400589 1.3539898 -0.38941187
-4.1911473 1.3383708 0.85520601
-4.2292571 1.351355 -0.23268569
-4.1782594 1.3358637 1.0127298
-4.2110891 1.3471688 -0.077174544
-4.167345 1.3339777 1.1724503
-2.2914729 0.73703498 -0.64497709
-4.2127738 1.3550069 0.077244349
-2.5618055 0.82447881 -0.62131482
-4.2147732 1.3572735 0.23205765
-3.1262391 1.0073385 -0.63844693
-4.209713 1.3572661 0.38697147
-3.7467792 1.208732 -0.62354785
-4.2148409 1.3597312 0.5437811
-4.2467175 1.3708344 -0.54792464
-4.1918597 1.3539331 0.69769776
-4.2201395 1.3638806 -0.38801736
-4.1862135 1.3537242 0.85520601
-4.2356772 1.3705351 -0.23331371
-4.1807513 1.35357 1.0145293
-4.2196774 1.3661728 -0.077418879
-4.1553125 1.346135 1.1703798
-2.2909834 0.74482763 -0.64549476
-4.19875 1.365876 0.077069834
-2.5609105 0.8335728 -0.62176478
-4.2216439 1.3749541 0.23268569
-3.1174591 1.0153303 -0.6373021
-4.2130055 1.3729552 0.38766876
-3.7410851 1.2198846 -0.62323499
-4.2103086 1.3737009 0.5437811
-4.2629061 1.3916863 -0.55060571
-4.2023683 1.3727335 0.70020074
-4.2271976 1.380844 -0.38906324
-4.1782074 1.3656482 0.85444272
-4.2313504 1.3838364 -0.23331371
-4.1987038 1.3739697 1.0199282
-4.2113233 1.3789129 -0.077349067
-4.1618404 1.3635161 1.1734856
-2.2920399 0.75402701 -0.64653003
-4.2034531 1.383651 0.077244349
-2.5487306 0.83945894 -0.61951524
-4.2187161 1.3903064 0.23279037
-3.1064379 1.0237476 -0.63577563
-4.2214327 1.3920195 0.38888893
-3.7461836 1.2360308 -0.62479931
-4.2017174 1.3871436 0.5432936
-4.2467132 1.4028213 -0.54914331
-4.2088051 1.3911138 0.70207798
-4.2261353 1.3968419 -0.38941187
-4.1845984 1.3839242 0.85673243
-4.2189097 1.3960874 -0.23289503
-4.186482 1.3861673 1.0181285
-4.2178731 1.3973792 -0.077558495
-4.1607227 1.37925 1.1745209
-2.2783959 0.75836253 -0.64342415
-4.2042899 1.4002113 0.077349067
-2.5624239 0.85389471 -0.62356436
-4.2043633 1.4018662 0.23226699
-3.093533 1.0314807 -0.63386756
-4.2259974 1.4098994 0.38976046
-3.7568364 1.254104 -0.62730229
-4.2043805 1.4043186 0.54426849
-4.2417903 1.4176368 -0.54914331
-4.2001762 1.404544 0.7014522
-4.2250123 1.4128492 -0.38976046
-4.1797423 1.3985219 0.85673243
-4.2215867 1.413342 -0.23331371
-4.1705313 1.3970587 1.0154291
-4.2167621 1.4133639 -0.077628307
-4.1760306 1.4005224 1.180215
-2.2793961 0.76754457 -0.64445943
-4.2183266 1.4212623 0.077698112
-2.5631208 0.86407918 -0.62446415
-4.2107987 1.4203638 0.23289503
-3.0713105 1.0359977 -0.63005131
-4.2134991 1.4220939 0.38906324
-3.7674079 1.2722654 -0.62980521
-4.2144985 1.4240699 0.54621845
-4.2443385 1.4349781 -0.55011827
-4.1877627 1.4166647 0.70020074
-4.2276039 1.4301424 -0.39045769
-4.1859932 1.4168802 0.85902214
-4.224194 1.4306324 -0.2337324
-4.1803942 1.4166116 1.0190283
-4.209909 1.4274325 -0.077593401
-4.1656284 1.4132291 1.1786621
-2.26756 0.77238166 -0.64187121
-4.2246966 1.439849 0.07790754
-2.5637779 0.8742795 -0.62536401
-4.2211885 1.4394767 0.2337324
-3.0676754 1.0467125 -0.63005131
-4.2047386 1.4355047 0.38871458
-3.7573354 1.2834938 -0.62886661
-4.2207723 1.4426247 0.54768091
-4.2486949 1.4529955 -0.55133694
-4.1923876 1.4337393 0.70176506
-4.226357 1.4461812 -0.39080635
-4.1921663 1.4352992 0.86131191
-4.2210646 1.4460152 -0.23383708
-4.179111 1.4324591 1.0199282
-4.2240691 1.4478693 -0.077942446
-4.159091 1.4264084 1.1781443
-2.257544 0.77777517 -0.63980073
-4.2009926 1.4473373 0.077558495
-2.5498106 0.8789655 -0.62266457
-4.22369 1.4568077 0.23415108
-3.0640032 1.0574137 -0.63005131
-4.2166514 1.456027 0.39028341
-3.764262 1.2998152 -0.6307438
-4.2122126 1.4553171 0.54719341
-4.266367 1.4748598 -0.55426186
-4.2004251 1.4528859 0.70395517
-4.2250485 1.4622285 -0.39115497
-4.1762514 1.4453406 0.85902214
-4.2219076 1.4619656 -0.23415108
-4.1817031 1.4488618 1.0217278
-4.2322145 1.4671904 -0.07818678
-4.1650381 1.4447153 1.1812501
-2.2586012 0.78652793 -0.64083594
-4.2110214 1.4672565 0.077837728
-2.5430465 0.88657826 -0.62176478
-4.2185798 1.4715414 0.23415108
-3.0512111 1.0643355 -0.62814325
-4.2042756 1.467375 0.38958618
-3.7652967 1.3149009 -0.63168246
-4.2052331 1.4693559 0.54694968
-4.2593188 1.4890881 -0.55401808
-4.2083802 1.4721053 0.70614529
-4.2220569 1.4768894 -0.39132929
-4.1785936 1.462503 0.86054862
-4.2130089 1.4753749 -0.23394175
-4.1839762 1.4660276 1.0235274
-4.232729 1.4839385 -0.078291491
-4.1636152 1.4605252 1.1822854
-2.255842 0.79440713 -0.64083594
-4.213419 1.4846041 0.077977359
-2.5509634 0.89933676 -0.62446415
-4.2096505 1.4849296 0.23394175
-3.0419233 1.0730206 -0.62699842
-4.225431 1.4913263 0.39202651
-3.7699976 1.3313242 -0.63324684
-4.2019501 1.4846874 0.54719341
-4.2540946 1.503948 -0.55401808
-4.2069411 1.4881027 0.70677096
-4.2300243 1.4962679 -0.39254946
-4.1808658 1.4797003 0.86207509
-4.2115979 1.4914054 -0.23415108
-4.1714864 1.4780194 1.0217278
-4.2331772 1.5007091 -0.078396209
-4.1730571 1.4802167 1.1864265
-2.2530553 0.80227619 -0.64083594
-4.2195125 1.5033303 0.07818678
-2.5588222 0.91216201 -0.62716359
-4.2082033 1.5009568 0.23415108
-3.0326116 1.0816537 -0.62585354
-4.208941 1.502048 0.39098063
-3.7746289 1.3477973 -0.6348111
-4.2042193 1.5020175 0.54816836
-4.2562962 1.5214603 -0.55499303
-4.1905608 1.4987873 0.70489377
-4.2247758 1.5110245 -0.39254946
-4.1867657 1.4982553 0.8643648
-4.2138882 1.5087898 -0.23456979
-4.177309 1.4965152 1.0244272
-4.2166181 1.5114291 -0.07818678
-4.1678653 1.4947735 1.1864265
-2.2266116 0.80162942 -0.6341067
-4.2180018 1.5194057 0.078256592
-2.557456 0.92174929 -0.62761348
-4.2217274 1.5224127 0.23519783
-3.0177364 1.088237 -0.62356383
-4.2036724 1.5167309 0.39098063
-3.7717593 1.3616359 -0.63512403
-4.2120199 1.5214045 0.54987448
-4.2640281 1.5410315 -0.55669922
-4.2038803 1.5201235 0.70802242
-4.2232227 1.5271177 -0.39289808
-4.1852031 1.5141957 0.86512804
-4.2198644 1.5275691 -0.23519783
-4.175724 1.5124147 1.025327
-4.2207174 1.5295444 -0.078361303
-4.1553578 1.5066791 1.184356
-2.2274306 0.81071842 -0.63514197
-4.2089143 1.5327516 0.07818678
-2.550561 0.92933595 -0.62671363
-4.22014 1.5385081 0.23540714
-3.0452759 1.1101958 -0.63005131
-4.2095828 1.5354917 0.39202651
-3.7688391 1.3754709 -0.63543689
-4.2066836 1.536098 0.54987448
-4.2716746 1.560675 -0.5584054
-4.1985483 1.5347886 0.70802242
-4.2216086 1.5432184 -0.39324668
-4.1798921 1.5287957 0.86512804
-4.2220087 1.5450354 -0.23561651
-4.1960387 1.5363621 1.0316256
-4.2266188 1.5483954 -0.078570738
-4.1718392 1.5291532 1.1905677
-2.2209609 0.81715459 -0.6341067
-4.2072921 1.548815 0.078256592
-2.5564446 0.94160181 -0.62896323
-4.2259884 1.5573738 0.23603518
-3.0248027 1.1147093 -0.62661678
-4.2172828 1.5550004 0.39324668
-3.7658677 1.3893019 -0.63574976
-4.1975718 1.5493983 0.54938704
-4.2587523 1.5728246 -0.55743045
-4.2098413 1.5555972 0.71083826
-4.2367544 1.5655419 -0.39516413
-4.1782126 1.5447384 0.86589122
-4.2090974 1.5569921 -0.23519783
-4.19065 1.5509998 1.0316256
-4.2324395 1.5673063 -0.078780167
-4.1791563 1.5484056 1.1941911
-2.2217164 0.82624859 -0.63514197
-4.2074823 1.5655838 0.078361303
-2.5622737 0.95391941 -0.63121271
-4.2114415 1.5678948 0.23551181
-3.0135343 1.1225191 -0.6250903
-4.2267647 1.5752796 0.39464122
-3.7702498 1.40589 -0.63731414
-4.1995769 1.5668156 0.55036199
-4.2588153 1.5897647 -0.55816168
-4.2139134 1.5730033 0.71240264
-4.2312636 1.5803214 -0.39516413
-4.1875081 1.5648109 0.86894423
-4.2167315 1.5765712 -0.23593052
-4.1852102 1.5656185 1.0316256
-4.2309642 1.5827343 -0.078849971
-4.1721892 1.5615765 1.1936734
-2.2260523 0.83671761 -0.63721251
-4.2134986 1.5837493 0.078570738
-2.5809844 0.97064263 -0.63661152
-4.2190285 1.5875089 0.23624454
-3.0132723 1.134415 -0.62585354
-4.2231045 1.5907265 0.3948155
-3.7674153 1.4190811 -0.63762695
-4.2055039 1.584934 0.55182445
-4.2628074 1.6073797 -0.55938035
-4.2010031 1.5849137 0.71115112
-4.2313137 1.5971915 -0.39568707
-4.1896424 1.5814618 0.8704707
-4.2189536 1.5933684 -0.23634921
-4.181819 1.5801777 1.0320755
-4.2385077 1.6024429 -0.079094306
-4.1757479 1.5795494 1.1962616
-2.2142348 0.84066653 -0.6346243
-4.2116828 1.5998689 0.078640543
-2.5921535 0.98518413 -0.64021075
-4.2265291 1.6071957 0.23697723
-3.020504 1.1485881 -0.62814325
-4.2140818 1.6033053 0.39446688
-3.7679775 1.4343306 -0.6385656
-4.2166409 1.6059629 0.55401808
-4.23491 1.6137686 -0.55645543
-4.2046747 1.6030861 0.71271551
-4.2334404 1.6140535 -0.39638433
-4.1840968 1.5960768 0.8704707
-4.2282939 1.613783 -0.23718657
-4.1963034 1.6024113 1.0370244
-4.2384925 1.6193695 -0.079199016
-4.1702085 1.594116 1.1962616
-2.2148943 0.84977454 -0.63565958
-4.2060728 1.6145597 0.078640543
-2.5923371 0.99562383 -0.64111054
-4.2264867 1.6240886 0.23729126
-3.0219743 1.1612374 -0.62928808
-4.2121792 1.6194346 0.3948155
-3.7592607 1.4460565 -0.63793981
-4.223978 1.6256645 0.55572426
-4.2273993 1.627827 -0.55621171
-4.2027402 1.6191741 0.7133413
-4.2314987 1.6302538 -0.39673293
-4.1748352 1.6092613 0.86970741
-4.2114544 1.6242198 -0.23655853
-4.2015924 1.6212589 1.0397239
-4.2365441 1.6355962 -0.079268835
-4.1718268 1.6114473 1.1983322
-2.1993058 0.85261285 -0.63203615
-4.2134619 1.6342938 0.078884877
-2.581579 1.0018468 -0.63931096
-4.2170672 1.6373861 0.2370819
-3.0270529 1.175332 -0.6311962
-4.219501 1.6391784 0.39603567
-3.7652371 1.4634638 -0.63981706
-4.2090273 1.6368005 0.55450553
-4.2031918 1.6353757 -0.55377436
-4.2062664 1.6374173 0.71490556
-4.2406359 1.6507968 -0.39812744
-4.1856575 1.6302361 0.873142
-4.2132034 1.6418116 -0.23697723
-4.1904607 1.6337926 1.0383742
-4.2419877 1.6547351 -0.079478264
-4.1859732 1.6337253 1.2040263
-2.2143042 0.86733043 -0.63721251
-4.2077312 1.6489917 0.078884877
-2.568995 1.0072945 -0.63706142
-4.2113261 1.6520965 0.2370819
-3.0137937 1.1823064 -0.62928808
-4.2267356 1.658993 0.39725587
-3.7692993 1.4802085 -0.64138144
-4.1995921 1.650031 0.55401808
-4.2066946 1.653669 -0.55499303
-4.2060399 1.6542604 0.71584421
-4.2348471 1.6655905 -0.39812744
-4.1817684 1.645556 0.87352359
-4.2018714 1.6543134 -0.23666322
-4.1792922 1.6462675 1.0370244
-4.2287436 1.6665983 -0.07933864
-4.1838388 1.6497445 1.2050616
-2.2058742 0.87292206 -0.63565958
-4.1852169 1.6570435 0.078570738
-2.574522 1.0198451 -0.63931096
-4.1869664 1.659428 0.23603518
-3.0041728 1.1906493 -0.62814325
-4.2116594 1.6700641 0.39638433
-3.7677813 1.4948136 -0.64200711
-4.2030325 1.6683425 0.55523676
-4.1289449 1.6397673 -0.54548723
-4.1837177 1.6623663 0.71302837
-4.1771631 1.6597619 -0.39324668
-4.1814723 1.6623188 0.87466848
-4.1645212 1.6564231 -0.2348838
-4.1698995 1.659404 1.0361247
-4.2191849 1.67987 -0.079268835
-4.1619015 1.6579055 1.2004027
-2.1974323 0.87846482 -0.6341067
-4.1348462 1.6538206 0.077733018
-2.5854201 1.0346178 -0.64291012
-4.1551905 1.6636392 0.23456979
-3.0145793 1.2069657 -0.6311962
-4.1447697 1.6603075 0.39063203
-3.7827103 1.5160403 -0.64544868
-4.067925 1.6319972 -0.53817511
-4.1375589 1.6607718 0.70614529
-4.1325154 1.6587473 -0.38958618
-4.1355639 1.6608081 0.86627293
-4.1216493 1.6560565 -0.23279037
-4.109838 1.652144 1.0226275
-4.1298084 1.6610092 -0.077698112
-4.0879865 1.6450174 1.1807325
-2.2015178 0.88902354 -0.63617724
-4.0771337 1.6472691 0.076755688
-2.58902 1.0465571 -0.64470977
-4.1012173 1.6586639 0.23184831
-3.019448 1.2211617 -0.63310426
-4.0946226 1.6568294 0.38644853
-3.7975366 1.5373882 -0.64889026
-4.114007 1.6663444 0.54499972
-4.0346069 1.6350037 -0.53451896
-4.0932937 1.6596169 0.69957501
-4.0768476 1.652949 -0.38487977
-4.0660663 1.6494052 0.85291624
-3.5662005 1.4473586 -0.20170279
-4.0841851 1.6584153 1.0176786
-4.0665531 1.6520827 -0.076616064
-4.0553741 1.6483657 1.1729679
-2.2091334 0.90108114 -0.63928306
-4.0343299 1.6463788 0.076057591
-2.5817428 1.0541149 -0.64380997
-4.0528765 1.6555991 0.22944085
-3.0224369 1.2346647 -0.63463074
-4.0593057 1.6590511 0.3836596
-3.82323 1.563345 -0.65420902
-4.0603962 1.661152 0.53866255
-4.0068288 1.6400535 -0.5315941
-4.049087 1.6581743 0.69300479
-4.0268021 1.6490482 -0.38069627
-4.0221338 1.6479572 0.84490222
-4.0064983 1.642368 -0.22692874
-4.0387053 1.6563936 1.0077808
-4.0126619 1.6465305 -0.075708538
-4.0156407 1.6485718 1.1631329
-2.2113333 0.91099405 -0.64083594
-3.5182867 1.4501326 0.066423863
-2.583452 1.0653492 -0.64515966
-4.0027623 1.6514536 0.22692874
-2.9945157 1.2354728 -0.62966973
-4.0203395 1.6595269 0.38052195
-3.8378329 1.5849763 -0.65765053
-3.9573364 1.6351382 0.52574438
-3.9662244 1.6396199 -0.52696311
-4.0031147 1.6556895 0.68612164
-3.9952455 1.6524347 -0.3782559
-3.9873316 1.6499766 0.83879644
-3.9822872 1.6487023 -0.22588199
-3.9896891 1.6525834 0.99698311
-3.6041687 1.4936326 -0.06809929
-3.9866631 1.6529593 1.1564035
-2.2063565 0.91796553 -0.64031839
-3.9655073 1.6506809 0.074975535
-2.6156969 1.0893449 -0.65415776
-3.8697627 1.6124113 0.21970637
-3.039115 1.2663059 -0.6399734
-3.9538357 1.6482518 0.37476969
-3.8468626 1.6044466 -0.66015351
-3.6713107 1.5319788 0.4884524
-3.9384942 1.6442773 -0.5240382
-3.9517419 1.6506191 0.67829996
-3.9765832 1.6609952 -0.37703574
-3.9471312 1.6495012 0.83154565
-3.9451821 1.6494967 -0.22410259
-3.9317603 1.644691 0.98393595
-3.9383504 1.6482544 -0.074521773
-3.9185002 1.6407515 1.1382862
-2.1979568 0.92303318 -0.63876545
-3.9102349 1.6429082 0.074033104
-2.6102734 1.0972584 -0.6537078
-3.8993745 1.6399467 0.22169513
-3.0928102 1.3007327 -0.6521852
-3.9171283 1.6482179 0.37180638
-3.8069286 1.602632 -0.65420902
-3.9205031 1.6512489 0.52233207
-3.9202151 1.651933 -0.52233207
-3.909842 1.6483667 0.67204249
-3.8973315 1.6438924 -0.37006328
-3.9054611 1.6473215 0.82391334
-3.9065688 1.6485919 -0.2222185
-3.902946 1.6478665 0.97808719
-3.9181263 1.6550806 -0.07424254
-3.870331 1.635687 1.125863
-2.1945591 0.93108237 -0.63876545
-3.8639777 1.6393642 0.07326521
-2.6082215 1.1071242 -0.65415776
-3.8844349 1.6496446 0.22117178
-3.8817239 1.6500928 0.36901742
-3.7701268 1.6034309 -0.64889026
-3.8745267 1.647832 0.5169698
-3.8687584 1.6461772 -0.51623857
-3.8604436 1.6434339 0.66453367
-3.8659065 1.6465564 -0.36762294
-3.857856 1.6439241 0.81513608
-3.8582435 1.6448839 -0.21981104
-3.8628232 1.6476331 0.96953917
-3.8645017 1.648349 -0.073335014
-3.8432751 1.640089 1.1196512
-2.2001739 0.94254124 -0.64135361
-3.8230207 1.6385489 0.072602011
-2.6005642 1.1151397 -0.65325791
-3.8401051 1.6466634 0.21897365
-3.7972131 1.6298413 0.36152202
-3.7481711 1.6095662 -0.64607441
-3.8173923 1.6400809 0.51014513
-3.8171062 1.6407471 -0.51014513
-3.8256466 1.6444181 0.65952778
-3.8271894 1.6458728 -0.36448529
-3.8088121 1.6387573 0.80597723
-3.8047807 1.6378098 -0.21708956
-3.8158824 1.6433791 0.95919138
-3.8440313 1.6555018 -0.073055774
-3.8073666 1.6404983 1.1108514
-2.1968706 0.95021564 -0.64135361
-3.7918706 1.6401035 0.072113343
-2.6147366 1.1314969 -0.65775692
-3.7958436 1.6433938 0.21677555
-3.7787039 1.6375407 0.36030185
-3.7101879 1.6078485 -0.64044279
-3.7973621 1.6464137 0.50819516
-3.7770424 1.6383868 -0.50551409
-3.7510238 1.6278784 0.6476388
-3.8104553 1.654461 -0.36343944
-3.772743 1.6380867 0.79948968
-3.7645226 1.6352984 -0.2151008
-3.7639437 1.6358278 0.94749397
-3.7795465 1.6433932 -0.07193882
-3.7626441 1.6368246 1.0994633
-2.1972487 0.95904118 -0.64238888
-3.7531364 1.6389252 0.071485057
-2.6107709 1.1406171 -0.65775692
-3.7498221 1.6390365 0.21447276
-3.754998 1.6420795 0.35855874
-3.4385204 1.5043962 -0.59445107
-3.7515852 1.6421472 0.50283301
-3.7294779 1.6332461 -0.49990809
-3.6349492 1.5926043 0.62855375
-3.7356021 1.636704 -0.35681561
-3.7418287 1.6402116 0.79414707
-3.7331841 1.637199 -0.2136354
-3.7225196 1.6332968 0.93849593
-3.6749105 1.6131725 -0.070053965
-3.7144566 1.6313053 1.0870401
-2.176209 0.95891553 -0.63721251
-3.7126269 1.6366889 0.070821866
-2.6353016 1.1623067 -0.66495538
-3.7130144 1.6384089 0.21269335
-3.7073219 1.6366689 0.35454956
-3.5904543 1.5858254 -0.62167066
-3.6949894 1.632767 0.49600828
-3.6511312 1.6141473 -0.49015856
-3.6835644 1.6292554 0.63793981
-3.7007117 1.6368397 -0.35402662
-3.6983788 1.6365796 0.78613311
-3.6982265 1.6372831 -0.21196064
-3.7025416 1.6399674 0.93489665
-3.6692569 1.6259907 -0.070053965
-3.6698861 1.6270349 1.075652
-2.2363925 0.99477059 -0.65584749
-3.432848 1.5276841 0.065586142
-2.6241074 1.1683282 -0.66315573
-3.6051037 1.605849 0.20683172
-3.5760162 1.5936402 0.34252208
-3.5812886 1.59674 -0.62104493
-3.6657004 1.6351415 0.49283966
-3.4388185 1.534658 -0.46237233
-3.6526024 1.6308289 0.63355964
-3.6913369 1.6481231 -0.35367799
-3.6639631 1.6366671 0.78002721
-3.6596661 1.6355151 -0.21007656
-3.657656 1.6353825 0.92499876
-3.6288764 1.6232737 -0.069390766
-3.639498 1.6287885 1.068405
-2.2223325 0.9978233 -0.65274167
-3.6044323 1.6191406 0.06897191
-2.6253459 1.1798768 -0.66450548
-3.6395516 1.6364424 0.2091345
-3.6213076 1.6290002 0.34740278
-3.5738919 1.6084198 -0.62073201
-3.5767066 1.6104374 0.48162767
-3.5963345 1.6200309 -0.48430881
-3.6216745 1.6322051 0.62917954
-3.6274357 1.6348015 -0.34810004
-3.6313813 1.6373422 0.7743029
-3.597496 1.6228205 -0.20683172
-3.6270583 1.6369166 0.91870016
-3.5885596 1.620297 -0.068727575
-3.6091423 1.6303487 1.0611582
-2.2645848 1.0263081 -0.66620022
-3.602401 1.6333634 0.069041722
-2.6425076 1.1986942 -0.66990429
-3.6028986 1.6351053 0.20735508
-3.6155994 1.6416303 0.34740278
-3.5286884 1.6029119 -0.61384892
-3.5403404 1.6089513 0.47748414
-3.5635519 1.6202494 -0.48065275
-3.5781951 1.627661 0.62260926
-3.621707 1.6474537 -0.34810004
-3.5791836 1.6288656 0.76438087
-3.5772684 1.6287465 -0.20599434
-3.6018145 1.6406815 0.91375124
-3.4700637 1.5813994 -0.06656348
-3.5700321 1.627709 1.0513231
-3.5730398 1.6351107 0.068587959
-2.5922387 1.1868193 -0.65820682
-3.5735633 1.6368592 0.20599434
-3.5609429 1.6318305 0.34269637
-3.4835672 1.597108 -0.60696578
-3.5256813 1.6171607 0.47626543
-3.53442 1.6219157 -0.47748414
-3.5006826 1.6071736 0.61009449
-3.4928076 1.6035582 -0.33624685
-3.5520678 1.6315153 0.75980145
-3.5425241 1.6278805 -0.2043196
-3.5535712 1.6337092 0.90295362
-3.5044913 1.6118852 -0.067331389
-3.5134344 1.6167415 1.0363115
-3.5255554 1.6282885 0.067785151
-2.6340749 1.2171125 -0.66990429
-3.5300417 1.6311071 0.20379624
-3.0455313 1.4078779 -0.6521852
-3.5208666 1.6283602 0.33938447
-3.4636288 1.6026222 -0.6044628
-3.5110075 1.6252884 0.47504675
-3.4981148 1.6200616 -0.47334057
-3.5132585 1.627075 0.61322314
-3.4257247 1.587262 -0.33032027
-3.5107272 1.6273912 0.75216907
-3.5078297 1.6267917 -0.20264484
-3.5124924 1.6296991 0.89395553
-3.486429 1.6176064 -0.067087047
-3.4659991 1.6088628 1.0238881
-3.4983842 1.629837 0.067366287
-2.5841002 1.2044361 -0.65820682
-3.4881234 1.6265386 0.20170279
-3.4880798 1.6279998 0.33676979
-3.4332354 1.6024022 -0.6000827
-3.4732225 1.6218047 0.47065943
-3.4639468 1.6182098 -0.46944076
-3.478925 1.6259458 0.6082173
-3.4418213 1.6093374 -0.332412
-3.4768562 1.6257192 0.74606317
-3.4155791 1.5977935 -0.1976206
-3.4717684 1.6248174 0.88495749
-3.4499738 1.6153512 -0.066493668
-3.4428678 1.6127566 1.0187118
-3.4637196 1.6284254 0.066807814
-2.57988 1.2134496 -0.65820682
-3.4553168 1.6259488 0.20013271
-3.0358775 1.4285756 -0.6521852
-3.4628332 1.6302229 0.33485237
-3.4294078 1.6152194 -0.60039556
-3.4280343 1.6153033 0.46529719
-3.4259572 1.6150544 -0.46505347
-3.4517879 1.6279688 0.6044628
-3.4256535 1.6156429 -0.33136615
-3.4285471 1.6177392 0.73690438
-3.4316547 1.6199368 -0.19887665
-3.4449301 1.6269399 0.87955868
-3.426234 1.6188414 -0.066144623
-3.4197519 1.6165081 1.0135354
-3.4345272 1.6293637 0.066354051
-3.4189491 1.6234356 0.19835329
-2.9209168 1.3869526 -0.62852484
-3.4373252 1.6328965 0.33293492
-3.402339 1.6170051 -0.59664112
-3.3918984 1.6127678 0.46115363
-3.3862388 1.6108024 -0.4604224
-3.4104104 1.6230307 0.59820545
-3.3894091 1.6130359 -0.32840282
-3.408699 1.6229448 0.73385143
-3.393522 1.6164464 -0.19699256
-3.4040463 1.6221883 0.87056065
-3.3808517 1.6118581 -0.065376714
-3.3931644 1.6184561 1.0073237
-3.3927443 1.6240752 0.065655954
-2.634619 1.2617321 -0.67440331
-3.3898458 1.6241415 0.19699256
-2.9797966 1.4276788 -0.64226311
-3.4028575 1.6311067 0.33014596
-3.3521454 1.6075172 -0.58881938
-3.3665605 1.6151527 0.45847249
-3.3519614 1.6088692 -0.45652261
-3.3637683 1.6152576 0.5910095
-3.3424489 1.6050202 -0.32439366
-3.3817775 1.6246319 0.72927201
-3.3734577 1.6213607 -0.19615518
-3.3702631 1.6205485 0.86336225
-3.3463717 1.6097807 -0.064818241
-3.3422346 1.6085088 0.99386519
-3.3546429 1.6202528 0.065027662
-3.3625779 1.6255331 0.1957365
-2.9465139 1.4244001 -0.63615721
-3.3576837 1.6238903 0.32631108
-3.307394 1.6002806 -0.5819363
-3.3412476 1.6173812 0.45579138
-3.3213124 1.608446 -0.45311025
-3.3225548 1.6097636 0.58475208
-3.3188956 1.6079906 -0.32265055
-3.3407519 1.619301 0.72163963
-3.3426187 1.6209252 -0.19468978
-3.3540661 1.6271994 0.86066282
-3.310149 1.6066082 -0.064224854
-3.2966297 1.6007575 0.98195946
-3.3238001 1.6196893 0.064539
-3.3299565 1.6241279 0.19416642
-2.9274075 1.4277917 -0.63310426
-3.2929051 1.6067681 0.32055882
-3.2609591 1.5918849 -0.57474029
-3.2927718 1.6081264 0.44994166
-3.3014092 1.6130583 -0.45116034
-3.3044927 1.6152793 0.58256203
-3.2792528 1.6029419 -0.31933865
-3.2962792 1.6119773 0.71324408
-3.3189993 1.623806 -0.19364306
-3.3098581 1.6200504 0.85076493
-3.2829695 1.6076 -0.063805997
-3.2684691 1.6012057 0.97523022
-3.2965915 1.6206948 0.064120144
-3.2848413 1.6163421 0.19186363
-3.265826 1.6076933 0.31846708
-3.2252564 1.5884212 -0.56942153
-3.2550862 1.6038182 0.44555435
-3.2637086 1.6087745 -0.44677305
-3.2598569 1.607584 0.57567888
-3.2468333 1.6011614 -0.31672394
-3.2554193 1.606101 0.70561171
-3.2739093 1.6159338 -0.19134027
-3.2779729 1.618652 0.84401637
-3.268374 1.6146207 -0.063631475
-3.2316861 1.5971981 0.9659127
-3.2783742 1.6259718 0.063875809
-3.2490482 1.6121347 0.19008422
-3.2334275 1.6057897 0.3158524
-3.1949253 1.5873647 -0.56504136
-3.2334692 1.6072186 0.44336072
-3.2334692 1.6072186 -0.44336072
-3.2191331 1.6007943 0.56942153
-3.2126834 1.5982854 -0.31393498
-3.2392476 1.6122062 0.70332199
-3.228915 1.6077678 -0.1890375
-3.2185094 1.6025865 0.83006942
-3.2236238 1.6058342 -0.062863566
-3.2159977 1.6027361 0.96280694
-3.2264631 1.613579 0.062968284
-3.2222502 1.6121762 0.18882816
-2.7369893 1.3699846 -0.59494245
-3.2263033 1.6156113 0.31567809
-3.1649179 1.5855637 -0.5606612
-3.1979523 1.6028116 0.43921715
-3.1979523 1.6028116 -0.43921715
-3.1961496 1.602605 0.56629282
-3.1753097 1.5928501 -0.31079736
-3.2022991 1.6070886 0.69645286
-3.2128568 1.613088 -0.18840946
-3.1957624 1.6045053 0.8255704
-3.1879027 1.6012568 -0.062270187
-3.1778681 1.5969111 0.95297176
-3.1853838 1.6062621 0.062270187
-3.1880744 1.6090158 0.1871534
-2.643044 1.3339399 -0.57547992
-3.1818001 1.6065451 0.31184325
-2.7752666 1.4018873 -0.49245578
-3.1802177 1.6071403 0.43751097
-3.1604505 1.5978423 -0.43482983
-3.1711454 1.6039455 0.56285131
-3.1451192 1.5907816 -0.308357
-3.1654208 1.6017436 0.68958372
-3.1522498 1.5957692 -0.18516463
-3.1710184 1.6059667 0.82062149
-3.1519694 1.5970106 -0.061676804
-3.1533198 1.5983864 0.94727772
-3.1298509 1.5919868 0.061292849
-2.6277833 1.33719 -0.68070197
-3.1699798 1.6137911 0.18642069
-2.6033804 1.3253436 -0.56784761
-3.1530926 1.6058872 0.3095772
-2.7738762 1.4133606 -0.49308151
-3.1427546 1.6020036 0.43312368
-3.1354012 1.5989448 -0.43214872
-3.1426525 1.6033347 0.55878401
-3.1182504 1.590885 -0.30626526
-3.12134 1.593148 0.68118817
-3.1182001 1.5922304 -0.18348989
-3.1376264 1.6028414 0.8134231
-3.1267884 1.597993 -0.061292849
-3.11676 1.5935539 0.93796021
-3.1064827 1.5937742 0.060943801
-2.5641539 1.3160989 -0.66540527
-3.1270161 1.6056877 0.18422259
-2.5865133 1.3281455 -0.56517625
-3.1155677 1.6004972 0.30643961
-2.7794673 1.4284515 -0.4949587
-3.1036005 1.595718 0.42849267
-2.7767489 1.4282807 -0.38340098
-3.1124461 1.6016407 0.55440378
-2.7619035 1.4212543 -0.27175158
-3.0913227 1.5914524 0.6758455
-2.9474919 1.5180583 -0.17375539
-3.1146894 1.6048583 0.80892408
-3.0785332 1.5869077 -0.060455136
-3.0819895 1.5893713 0.92916042
-3.0724845 1.589904 0.060385328
-2.5456994 1.3178743 -0.66180605
-3.0770543 1.5936306 0.18160579
-2.5626845 1.3272344 -0.56097847
-3.0020506 1.5554509 0.29580659
-2.7464039 1.4236001 -0.4899528
-3.0645289 1.5891789 0.42386162
-2.7435532 1.4233383 -0.37950116
-2.8789084 1.4941967 0.51373082
-2.7374737 1.42079 -0.26983419
-3.0578704 1.587759 0.6697396
-2.7791147 1.4436346 -0.16412558
-3.0675683 1.5941532 0.7981264
-2.7500639 1.4297631 -0.054102462
-3.050715 1.5867485 0.92139584
-2.7422466 1.4317838 0.053997744
-2.5425792 1.3280988 -0.66225594
-2.7439663 1.433292 0.16224147
-2.533443 1.3238887 -0.55563581
-2.7720907 1.4492135 0.27366903
-2.7604218 1.4437276 -0.49339435
-2.7315328 1.4292247 0.37852621
-2.7471116 1.4379869 -0.38071984
-2.6374109 1.3805635 0.47149354
-2.7375429 1.4335876 -0.2703571
-3.0363791 1.5907555 0.66630507
-2.7490387 1.4408298 -0.16266017
-3.0358162 1.5918123 0.79137784
-2.7397432 1.4365681 -0.053997744
-3.0263393 1.5875156 0.91570181
-2.7215576 1.4324871 0.053683605
-2.5623014 1.3492334 -0.66855454
-2.7248104 1.435414 0.1614041
-2.5183849 1.3272319 -0.5533461
-2.7159052 1.4319332 0.26861399
-2.7573674 1.4537936 -0.49370724
-2.728534 1.439201 0.37876993
-2.6246994 1.3850178 -0.36438939
-2.5976374 1.3713179 0.46523616
-2.7624724 1.4589516 -0.27332041
-3.0102553 1.5898138 0.66172564
-2.715991 1.4350096 -0.16098543
-3.0115693 1.5918533 0.78642893
-2.7506223 1.4545354 -0.05431189
-2.9900422 1.5818092 0.90638429
-2.28161 1.2106007 -0.69208211
-2.7112422 1.4391651 0.053578887
-2.5128269 1.3344065 -0.65685713
-2.7162554 1.4430426 0.16119476
-2.4948986 1.3254441 -0.54914832
-2.7023447 1.4362562 0.26774243
-2.7522755 1.4634106 -0.49370724
-2.7269988 1.4505813 0.37925744
-2.5970676 1.382048 -0.36122078
-2.5736547 1.3701651 0.46179458
-2.7309852 1.4545367 -0.27070573
-2.9734969 1.5836997 0.6548565
-2.6862881 1.4313327 -0.15952002
-2.9905176 1.5941051 0.78237981
-2.7437634 1.4631871 -0.054276984
-2.9657531 1.5822349 0.90069032
-2.243094 1.2007204 -0.68172938
-2.6832831 1.436352 0.053125124
-2.501282 1.3394899 -0.65505755
-2.6847942 1.4383676 0.15962468
-2.486563 1.3327246 -0.54838508
-2.6865268 1.4405029 0.26669657
-2.7555971 1.4781573 -0.49527156
-2.6816847 1.4385092 0.37365144
-2.5834818 1.3864119 -0.36000207
-2.5584137 1.3735343 0.45991737
-2.7627511 1.4838581 -0.27436629
-2.9123311 1.5648516 0.64264476
-2.6599135 1.4298211 -0.15826395
-2.9537613 1.5884417 0.77428156
-2.7650568 1.4869624 -0.054800555
-2.941498 1.5825089 0.89499629
-2.221889 1.1993672 -0.67655301
-2.6463287 1.4290745 0.052496839
-2.4860687 1.3430904 -0.65235811
-2.6461201 1.430155 0.15763591
-2.457716 1.3283278 -0.54304242
-2.6604509 1.4385004 0.26460484
-2.7417333 1.4830673 -0.49370724
-2.6571898 1.4379361 0.37097031
-2.5661631 1.389256 -0.35829589
-2.5342555 1.3725541 0.45647582
-2.7522988 1.4906464 -0.27384335
-2.777389 1.5048622 0.61402339
-2.6092532 1.414351 -0.15554248
-2.9242158 1.5857373 0.76798296
-2.7560732 1.4951799 -0.054730747
-2.9085116 1.5785354 0.8867141
-2.2007213 1.1978799 -0.67137665
-2.6237624 1.4287393 0.052147791
-2.5053232 1.3648124 -0.65865678
-2.6183133 1.4269581 0.15627518
-2.4427207 1.3312616 -0.54075271
-2.632673 1.4353791 0.26233879
-2.7382736 1.4935753 -0.4940201
-2.6260161 1.4329398 0.36731425
-2.505542 1.3677675 -0.35049626
-2.5017099 1.366243 0.45146993
-2.7330897 1.492605 -0.27244884
-2.6205053 1.4317138 0.580441
-2.5815175 1.410997 -0.15418173
-2.8947251 1.582846 0.7616843
-2.7122414 1.4836782 -0.053962842
-2.8978996 1.5858961 0.88516116
-2.203301 1.2092723 -0.67344719
-2.6029835 1.4292274 0.051833645
-2.454427 1.3482175 -0.64650935
-2.6013131 1.4289019 0.15554248
-2.4260151 1.3331614 -0.53808141
-2.6101871 1.4349618 0.26059568
-2.7261198 1.4993168 -0.49276862
-2.6036062 1.4325278 0.36487687
-2.5129254 1.3832064 -0.35220242
-2.4833212 1.3669112 0.44896698
-2.7261174 1.501175 -0.27227452
-2.5673435 1.4143273 0.56975567
-2.5468397 1.4036119 -0.15240233
-2.8823559 1.5891774 0.75988472
-2.7073061 1.4926643 -0.053962842
-2.863868 1.579635 0.87636131
-2.2024469 1.2188267 -0.67448246
-2.5649865 1.4194548 0.051170457
-2.4141397 1.3365278 -0.63706142
-2.5823321 1.4302316 0.15470509
-2.4196293 1.34067 -0.53769976
-2.5755377 1.4276443 0.25763237
-2.7176774 1.5064335 -0.49214289
-2.5797451 1.4305642 0.36219573
-2.5117967 1.3934574 -0.35268989
-2.7191193 1.5097142 -0.27210024
-2.5471914 1.4142562 0.56632113
-2.5753453 1.4304757 -0.15439108
-2.8617394 1.5902079 0.75583559
-2.7440264 1.5254233 -0.054800555
-2.8397648 1.5792947 0.87066728
-2.1815209 1.2167135 -0.6693061
-2.5355682 1.4147587 0.050681788
-2.3754282 1.3259498 -0.62806338
-2.5598862 1.4294991 0.15365838
-2.4031715 1.3419862 -0.53502846
-2.555135 1.4274319 0.25606358
-2.7089541 1.5139829 -0.49151716
-2.5452807 1.4230919 0.35805216
-2.5051847 1.4012485 -0.35244617
-2.4702704 1.3822849 0.44834125
-2.7106204 1.516777 -0.27175158
-2.5182557 1.4097131 0.56097847
-2.709744 1.5175297 -0.16276483
-2.8306701 1.5858997 0.74908704
-2.7561288 1.5447698 -0.055149604
-2.8123288 1.5769149 0.86393797
-2.1974671 1.2356837 -0.67551774
-2.5218999 1.4186987 0.050507262
-2.3673885 1.3323221 -0.62716359
-2.528775 1.4237285 0.1520883
-2.3847866 1.3426614 -0.53197551
-2.5484011 1.435364 0.25588927
-2.7105367 1.5273086 -0.49276862
-2.5230048 1.42222 0.35561478
-2.4864454 1.4021833 -0.35049626
-2.4344618 1.3734282 0.44270959
-2.6948979 1.5203561 -0.27070573
-2.5030611 1.4127059 0.55868876
-2.5722528 1.4523482 -0.15480977
-2.7962718 1.5794779 0.74143875
-2.7629063 1.5612682 -0.055393942
-2.793354 1.5791161 0.85979694
-2.1780157 1.2347715 -0.67085898
-2.506496 1.4215741 0.050297838
-2.3559439 1.3367311 -0.62536401
-2.5064204 1.4226878 0.15104158
-2.3681335 1.3441938 -0.52930421
-2.5225847 1.432445 0.25379753
-2.7206471 1.5455424 -0.49558446
-2.5093956 1.4261142 0.3543961
-2.6618643 1.5139931 -0.26791674
-2.481051 1.4117248 0.55487263
-2.4821157 1.412904 -0.14968085
-2.7805808 1.583443 0.73873931
-2.7904525 1.5897096 -0.056057129
-2.7710407 1.5792913 0.85462052
-2.1569195 1.2327811 -0.66568261
-2.4702711 1.4124483 0.049669549
-2.3478804 1.3430109 -0.62446415
-2.4945049 1.4274602 0.15062289
-2.3480909 1.3436761 -0.52586961
-2.4950907 1.4283736 0.25153148
-2.7649465 1.5834987 -0.50465763
-2.4906228 1.4269702 0.35244617
-2.4989853 1.4323407 -0.35366488
-2.4179592 1.3864599 0.44145811
-2.6219952 1.5034543 -0.26443052
-2.4641874 1.4135386 0.55220127
-2.4633102 1.4136069 -0.14884347
-2.7530661 1.5805264 0.73289061
-2.7606099 1.5854979 -0.055568464
-2.7387104 1.5735559 0.84633833
-2.1576247 1.2431961 -0.66723549
-2.4410713 1.4070811 0.04918088
-2.3296726 1.3434112 -0.62086499
-2.475667 1.428175 0.14978553
-2.3433864 1.3518643 -0.52586961
-2.4642055 1.4221355 0.2489168
-2.7354517 1.5793136 -0.50027746
-2.464999 1.4237413 0.34952128
-2.5111582 1.4509859 -0.35610226
-2.4353378 1.4077436 0.44552541
-2.6132812 1.5106035 -0.2640819
-2.4507403 1.4172176 0.55029315
-2.4358866 1.4091945 -0.14748274
-2.7272925 1.5784131 0.7274918
-2.5473909 1.4748892 -0.051379886
-2.7047818 1.5666466 0.83753842
-2.1516018 1.2497493 -0.66671789
-2.4292288 1.411575 0.049041264
-2.3131754 1.3446794 -0.6177156
-2.4447687 1.4217464 0.14821544
-2.330168 1.3551008 -0.52396154
-2.4506152 1.4257196 0.24804525
-2.723093 1.5848778 -0.499026
-2.4394286 1.4203506 0.34659645
-2.4923551 1.4517503 -0.35415235
-2.4321158 1.4172305 0.44583827
-2.6011064 1.5157038 -0.26338464
-2.5288875 1.4742112 0.56899244
-2.3998969 1.3995783 -0.14559864
-2.7032509 1.5771214 0.72254282
-2.5318649 1.4777236 -0.051170457
-2.6976287 1.5751039 0.83702081
-2.1555619 1.2621328 -0.6693061
-2.4173844 1.4160035 0.048901644
-2.3185561 1.3586568 -0.62041503
-2.4297013 1.4237871 0.14758742
-2.3305044 1.3662049 -0.52510637
-2.4267185 1.4231782 0.24612781
-2.7039144 1.5863764 -0.49652308
-2.4241836 1.4228282 0.34513399
-2.4684422 1.449385 -0.35147122
-2.4103682 1.4152859 0.44270959
-2.573467 1.5116551 -0.26111859
-2.6235917 1.5417151 0.59150791
-2.3932753 1.406935 -0.14549398
-2.6725328 1.5717291 0.71579432
-2.5062664 1.473947 -0.0507516
-2.6740749 1.5732651 0.83132678
-2.1544704 1.2716135 -0.67034137
-2.4006209 1.4168967 0.048657309
-2.3106818 1.3643564 -0.61951524
-2.3937628 1.4139756 0.14570332
-2.3088191 1.3643445 -0.52129018
-2.4080153 1.4235286 0.24473332
-2.6799338 1.5842766 -0.49308151
-2.3955307 1.4167124 0.34172165
-2.45508 1.4525088 -0.35025251
-2.4054136 1.4236904 0.44270959
-2.4944553 1.4769796 -0.25362319
-2.6421158 1.56441 0.59685057
-2.3782859 1.4087565 -0.14486594
-2.6538942 1.5726353 0.7121951
-2.501106 1.4826865 -0.0507516
-2.6469657 1.5697793 0.82459748
-2.1236749 1.2629517 -0.66205913
-2.3836305 1.4181108 0.048412975
-2.3075795 1.3734105 -0.61996514
-2.3888125 1.4223229 0.14570332
-2.3059692 1.3729973 -0.52167183
-2.3895874 1.4233493 0.24333882
-2.6591144 1.5845208 -0.49026567
-2.4025068 1.4321811 0.34342784
-2.4977331 1.4895383 -0.35707721
-2.3902509 1.426006 0.44083238
-2.3971484 1.4301209 -0.24421038
-2.6315811 1.5706055 0.59570575
-2.3579202 1.4078348 -0.14392389
-2.6333311 1.5728961 0.70814598
-2.5062141 1.497563 -0.050961025
-2.6149392 1.5631499 0.81631529
-2.1291952 1.2763166 -0.66516501
-2.3443666 1.4058543 0.047714882
-2.294416 1.3764447 -0.6177156
-2.3718452 1.4234585 0.14497061
-2.3028457 1.3820485 -0.52205342
-2.3641062 1.4193751 0.24124709
-2.6247795 1.5765027 -0.48494691
-2.3651636 1.4211332 0.33879682
-2.4840119 1.4931345 -0.3558585
-2.3784871 1.4302689 0.43958092
-2.3392107 1.4066507 -0.23880674
-2.5789778 1.551445 0.58502042
-2.3393016 1.4078174 -0.14308652
-2.6211464 1.5780579 0.70634633
-2.6208808 1.5785222 -0.053404365
-2.6028488 1.5682797 0.81424475
-2.1363013 1.2907343 -0.66878843
-2.330888 1.4088571 0.047540355
-2.282927 1.3804115 -0.61591601
-2.344646 1.4182905 0.14360988
-2.2862484 1.3829656 -0.51938212
-2.3506145 1.4224613 0.24037553
-2.3488848 1.4219755 -0.43488789
-2.3364165 1.4149839 0.33538446
-2.441433 1.4791665 -0.35049626
-2.3616545 1.4313962 0.43739083
-2.3223588 1.4075792 -0.23758654
-2.5366139 1.5380435 0.57662481
-2.3104658 1.401473 -0.14162111
-2.5906317 1.5720341 0.69959784
-2.6324492 1.5980375 -0.053753413
-2.5758927 1.5643198 0.80751544
-2.1136329 1.2871308 -0.6630944
-2.3157098 1.4107423 0.047330927
-2.2764301 1.3873584 -0.61546612
-2.3192172 1.4139898 0.1423538
-2.2847598 1.3929816 -0.52014536
-2.3269246 1.4192452 0.2384581
-2.2966919 1.4013563 -0.42612755
-2.317908 1.4148568 0.33343455
-2.3448436 1.4324222 0.43520072
-2.3089304 1.4104834 -0.23671499
-2.4374185 1.4895586 0.55525422
-2.2902234 1.4001542 -0.14067906
-2.5685043 1.5708995 0.69509882
-2.3419945 1.4329277 -0.047924306
-2.5555868 1.5642258 0.80285674
-2.1222992 1.3025849 -0.66723549
-2.278393 1.3989366 0.046667732
-2.2831972 1.4024361 -0.61861545
-2.2906895 1.4070382 0.14088841
-2.2849019 1.4040316 -0.52129018
-2.3032854 1.4158825 0.23654069
-2.2850554 1.4052256 -0.42487606
-2.3095739 1.4208585 0.33294708
-2.2907293 1.409817 -0.33026594
-2.2946587 1.4122354 0.42675328
-2.2853303 1.4070442 -0.23479758
-2.3001461 1.4167199 0.52510637
-2.2785206 1.4039487 -0.14026037
-2.5480747 1.5706526 0.69104964
-2.2878637 1.4102566 -0.04691207
-2.5405197 1.5666076 0.79975086
-2.102953 1.3008387 -0.66257679
-2.2720408 1.4054326 0.04663283
-2.2951052 1.4202542 -0.62311447
-2.2772734 1.4097687 0.14036505
-2.2749796 1.4088979 -0.52014536
-2.269536 1.4060756 0.23357739
-2.2753451 1.4096745 -0.42393744
-2.2761652 1.4107317 0.32880351
-2.2809806 1.4142672 -0.32953474
-2.2762856 1.4119068 0.42425033
-2.2651682 1.4055586 -0.23322876
-2.257067 1.4005318 0.51632917
-2.2653677 1.40623 -0.13973701
-2.5378859 1.5760098 0.68970001
-2.2761326 1.4140131 -0.04677245
-2.5087829 1.5591505 0.79146868
-2.0904298 1.3026967 -0.65998858
-2.2484543 1.4017186 0.046248876
-2.2868266 1.4261941 -0.62221462
-2.2776701 1.4204835 0.14067906
-2.2786231 1.4216301 -0.52205342
-2.275002 1.4199234 0.23462325
-2.2670596 1.4155161 -0.42331171
-2.2577581 1.4102554 0.3268536
-2.2861302 1.4285327 -0.33099717
-2.2665653 1.4163072 0.42331171
-2.265563 1.4162308 -0.2337517
-2.2321901 1.39591 0.51174974
-2.2655249 1.417307 -0.14005104
-2.5125461 1.572453 0.68430114
-2.2731261 1.4226143 -0.046807356
-2.4954119 1.5623351 0.78888047
-2.0858698 1.3099856 -0.65998858
-2.2691953 1.4251193 0.04677245
-2.2804346 1.4327331 -0.62176478
-2.2710066 1.4273626 0.1405744
-2.2753088 1.4306206 -0.52243507
-2.2649722 1.4246737 0.23410031
-2.265697 1.4251297 -0.42393744
-2.2547491 1.4187918 0.32709733
-2.2813804 1.4361061 -0.33099717
-2.2616076 1.4242104 0.42331171
-2.2707205 1.4305018 -0.23479758
-2.2292097 1.404351 0.51213133
-2.2489846 1.4173579 -0.13931833
-2.490833 1.5703834 0.67980212
-2.2698381 1.4316067 -0.046842258
-2.4834075 1.5669135 0.78680992
-2.0812843 1.317259 -0.65998858
-2.2571988 1.4291481 0.04663283
-2.3525434 1.4900908 -0.64291012
-2.2606981 1.4324702 0.14026037
-2.2819092 1.4459103 -0.52510637
-2.2717652 1.4400376 0.23532049
-2.4039271 1.5244013 -0.4508442
-2.2562385 1.4313005 0.32807231
-2.3498487 1.491259 -0.34172165
-2.2480342 1.4271959 0.42174736
-2.2926259 1.4555055 -0.23758654
-2.2455916 1.4261957 0.51709241
-2.2589469 1.4352304 -0.14026037
-2.4620357 1.5648677 0.67350352
-2.2763877 1.4474279 -0.047086593
-2.4548275 1.5614886 0.77956301
-2.0636435 1.3162053 -0.65584749
-2.2774827 1.4531528 0.047156405
-2.3571837 1.5045842 -0.64560956
-2.2758849 1.4532511 0.14151645
-2.3413815 1.4950736 -0.53998947
-2.2667246 1.4479589 0.23532049
-2.4601786 1.5721405 -0.46242031
-2.2562463 1.4423746 0.32880351
-2.4717271 1.5807351 -0.36024579
-2.2530222 1.4414222 0.4236246
-2.4654312 1.5773158 -0.25606358
-2.2505212 1.4403751 0.51938212
-2.4557672 1.5723404 -0.152821
-2.4401484 1.5629416 0.6690045
-2.4464273 1.5675646 -0.050716694
-2.4298451 1.5575378 0.77335137
-2.0574112 1.3223562 -0.65532982
-2.3026731 1.4805602 0.04778469
-2.3617511 1.5191292 -0.64830899
-2.3113675 1.4867214 0.14402856
-2.3377993 1.5042998 -0.54037106
-2.3001885 1.4806653 0.23932965
-2.4314249 1.5657451 -0.45804018
-2.3146119 1.4910935 0.33806559
-2.4528456 1.5807507 -0.35829589
-2.3129869 1.490618 0.43582645
-2.4347925 1.5697179 -0.2534489
-2.428616 1.5663359 0.56174171
-2.4469066 1.5787381 -0.15261166
-2.4281287 1.5672221 0.66720486
-2.449616 1.5810908 -0.050891217
-2.4003229 1.5498683 0.76558679
-2.0398114 1.321128 -0.65118873
-2.294394 1.4860139 0.047714882
-2.3501582 1.522714 -0.64650935
-2.3178954 1.5023847 0.14476126
-2.3358285 1.5145874 -0.54113436
-2.3033633 1.4941075 0.24020122
-2.4146183 1.5662745 -0.45585006
-2.3263066 1.5095668 0.34050298
-2.4392648 1.5834718 -0.35707721
-2.3293068 1.5126693 0.43989375
-2.4192736 1.5716947 -0.25240302
-2.4168229 1.5701026 0.56021523
-2.4215624 1.5737826 -0.15135561
-2.4000454 1.5603944 0.66090626
-2.4340241 1.5830903 -0.050681788
-2.3835633 1.5508626 0.76196331
-2.0418911 1.3321073 -0.65325934
-2.2992404 1.5005711 0.047924306
-2.3187208 1.5138628 -0.63931096
-2.3078837 1.5067874 0.14444725
-2.3340807 1.5244721 -0.54189759
-2.3050683 1.5060962 0.24089848
-2.3959086 1.5660474 -0.45334715
-2.3060701 1.5079005 0.33830932
-2.4154491 1.5800235 -0.3543961
-2.327584 1.5225481 0.44051951
-2.4040453 1.5731632 -0.25135714
-2.4014719 1.5720776 0.55792552
-2.3993456 1.5712838 -0.15030889
-2.378283 1.5580838 0.65640724
-2.4187248 1.5845784 -0.05047236
-2.3622496 1.5481689 0.75678688
-2.0323858 1.3360432 -0.6517064
-2.3042774 1.5147784 0.048133738
-2.2908928 1.5065532 -0.63301229
-2.2976041 1.5115411 0.14413324
-2.3139856 1.5228961 -0.538463
-2.3147733 1.5239943 0.24246727
