# .PCD v0.7 - Point Cloud Data file format
VERSION 0.7
FIELDS x y z
SIZE 4 4 4
TYPE F F F
COUNT 1 1 1
WIDTH 1481
HEIGHT 1
VIEWPOINT 0 0 0 1 0 0 0
POINTS 1481
DATA ascii
3.4302447 -2.6521509 0.68674743
3.4771254 -2.6883974 -0.38453114
3.4102869 -2.6376708 0.83803314
3.45309 -2.6717405 -0.22881283
3.3949482 -2.627702 0.99113441
3.4658556 -2.6835523 -0.076511353
3.3844714 -2.6214826 1.147086
2.0858264 -1.6196827 -0.70761132
3.4253139 -2.660778 0.075708538
2.4681776 -1.9179667 -0.72164303
3.4202127 -2.6587303 0.22703341
2.8892269 -2.2459641 -0.71133596
3.4224205 -2.6614048 0.37930179
3.4161239 -2.657465 -0.68549597
3.3948603 -2.641875 0.52818179
3.4617543 -2.6949022 -0.53866255
3.3882365 -2.6386201 0.68017709
3.4252775 -2.6674659 -0.37982473
3.363889 -2.6206024 0.82887435
3.3397691 -2.6027491 -0.22190447
3.3488698 -2.6107807 0.98033679
3.4154687 -2.6636598 -0.075603828
3.3402679 -2.6059496 1.1351804
2.0862465 -1.6317142 -0.70968187
3.3782072 -2.6431448 0.074870825
2.4737442 -1.9361796 -0.72524226
3.3841777 -2.6497209 0.22525398
2.8674574 -2.2451427 -0.70790142
3.3691909 -2.6389356 0.37442106
3.3757281 -2.6450067 -0.6792385
3.3559327 -2.6304419 0.52355075
3.4085865 -2.6726732 -0.53183788
3.3417032 -2.6211717 0.67266828
3.3250208 -2.6080863 -0.36971465
3.3253748 -2.6093016 0.82162356
3.3825088 -2.6550865 -0.22535865
3.3152132 -2.6031983 0.97313833
3.3731265 -2.6496255 -0.074870825
3.2886195 -2.5841727 1.1206865
2.0957134 -1.6509414 -0.71485823
3.3422599 -2.6338794 0.074277438
2.4730921 -1.9496285 -0.72704184
3.3560884 -2.6466765 0.22399792
2.8657689 -2.2600012 -0.70942789
3.3286738 -2.6259997 0.37093481
3.3230567 -2.622509 -0.67047822
3.312453 -2.6150792 0.51818854
3.3711951 -2.6624091 -0.52745056
3.3046329 -2.6107783 0.66703665
3.3518541 -2.6480846 -0.3737238
3.2792795 -2.5916781 0.81246477
3.3371849 -2.6383879 -0.2229512
3.2816501 -2.5954132 0.96593988
3.330924 -2.6353281 -0.074137822
3.2538264 -2.5752547 1.1118866
2.0596709 -1.6342317 -0.70450544
3.3032863 -2.6219094 0.073614255
2.4464314 -1.9424962 -0.72119313
3.3014748 -2.6223505 0.22096242
2.8578625 -2.2699907 -0.70942789
3.2976489 -2.6202502 0.36849448
3.2968719 -2.6205719 -0.66703665
3.2691219 -2.5994453 0.51282626
3.3385777 -2.6556249 -0.52379447
3.2692218 -2.601388 0.66171783
3.2364199 -2.5762095 0.80406916
3.2904568 -2.6201615 -0.22043908
3.2405615 -2.5813551 0.95649195
3.2966826 -2.6270001 -0.073579341
3.2236688 -2.5697381 1.1046398
2.0931916 -1.672768 -0.71796405
3.2644372 -2.6096995 0.072951064
2.4578991 -1.9656293 -0.726592
3.2579899 -2.60641 0.21865964
2.8422561 -2.2738206 -0.70751977
3.2667046 -2.6143162 0.36605412
3.2491522 -2.6012003 -0.65921491
3.2336879 -2.589746 0.50868267
3.2843599 -2.631269 -0.51672608
3.2292929 -2.5880768 0.65546048
3.2059634 -2.5702984 0.7987265
3.2548032 -2.6103883 -0.21865964
3.2041712 -2.5706995 0.9483937
3.2609804 -2.6172132 -0.072985962
3.1800318 -2.5531576 1.092734
2.0873399 -1.6800646 -0.71796405
3.2319443 -2.602267 0.072427489
2.4419167 -1.9668624 -0.72389257
3.2177675 -2.5927041 0.21656621
2.8159568 -2.2689466 -0.7029404
3.217227 -2.5931947 0.36152202
3.2169864 -2.5939271 -0.65452182
3.1999066 -2.5810771 0.50478286
3.251982 -2.6240184 -0.51306999
3.1879597 -2.573278 0.64889026
2.6433384 -2.133667 -0.29720107
3.1725323 -2.5617397 0.7926206
3.2161515 -2.5978887 -0.21667089
3.1557686 -2.5500238 0.93669623
3.2129455 -2.5971529 -0.072113343
3.1410565 -2.5399485 1.0823812
2.0574515 -1.6678756 -0.70968187
3.1902242 -2.5870826 0.071694486
2.4350362 -1.9753743 -0.72389257
3.1885369 -2.5875595 0.21520546
2.8049707 -2.276288 -0.70217711
3.1725781 -2.5755272 0.35751286
3.1726434 -2.576499 -0.64732587
3.1708477 -2.575959 0.50161427
3.211992 -2.6103151 -0.50819516
3.1483026 -2.5594687 0.6426329
3.1816008 -2.586539 -0.35873303
3.1331079 -2.5480239 0.78498828
3.1838238 -2.5901923 -0.2151008
3.1226649 -2.5413427 0.92949778
3.1821499 -2.5906773 -0.071624674
3.1022129 -2.5264986 1.0720285
2.0576029 -1.6799346 -0.71175241
3.1471014 -2.5703735 0.070926577
2.4296353 -1.9850953 -0.72434247
3.1547425 -2.5784509 0.21353073
2.7635653 -2.2587318 -0.69378155
3.1358039 -2.5638852 0.35437521
3.1299913 -2.5600441 -0.64044279
3.1311092 -2.5618708 0.49673948
3.1752102 -2.5988796 -0.5038079
3.1103096 -2.5466652 0.63668835
3.1540539 -2.5824826 -0.35664126
3.0938182 -2.5340648 0.77735591
3.1469553 -2.5785055 -0.21321672
3.0926745 -2.5349326 0.92319918
3.1452537 -2.5789468 -0.070996389
3.0694761 -2.5177095 1.0637463
2.0935068 -1.7214622 -0.7262463
3.110312 -2.5584774 0.070298299
2.4121575 -1.9848964 -0.72119313
3.1148818 -2.5640602 0.21143727
2.6753285 -2.2022355 -0.67355579
3.1053033 -2.5570843 0.35193488
2.7139444 -2.2356124 -0.55690676
3.0869124 -2.5437493 0.49113351
3.1385477 -2.5872192 -0.49942058
3.0831127 -2.5424256 0.63293391
2.4855807 -2.0496831 -0.28186166
3.056179 -2.521112 0.77010518
3.107126 -2.5640507 -0.21112327
3.059762 -2.5258629 0.91600072
3.106936 -2.5657172 -0.070333198
3.0383286 -2.509953 1.0559818
2.0458245 -1.6942582 -0.71175241
3.0490053 -2.525944 0.069111533
2.397712 -1.9870867 -0.7189436
2.7814834 -2.3059535 0.18935151
2.6237941 -2.1752234 -0.66248888
2.7789009 -2.304631 0.3158524
2.6665962 -2.2122788 -0.54877216
2.6548827 -2.2033434 0.42361787
3.0775685 -2.5550466 -0.49113351
3.0438263 -2.5279307 0.6266765
2.4753454 -2.0558012 -0.28151307
3.0201783 -2.5091817 0.76323599
2.9783468 -2.4753065 -0.20295887
3.0149629 -2.5066278 0.9052031
2.7551095 -2.2914004 -0.062549427
2.9998469 -2.495832 1.0456289
2.0369308 -1.6989144 -0.71071708
2.7392232 -2.2854767 0.062270187
2.3997378 -2.0029364 -0.72164303
2.7320225 -2.2810867 0.18652536
2.5905659 -2.1629782 -0.65600139
2.7402563 -2.2887728 0.31236616
2.7073662 -2.262104 -0.55878401
2.6060514 -2.1782243 0.41703692
2.7488232 -2.298373 -0.43994835
3.0016489 -2.5106583 0.61979342
2.4727387 -2.068264 -0.28203598
2.9933331 -2.5045903 0.75865656
2.7277024 -2.2831411 -0.18642069
2.9837825 -2.4983711 0.89845455
2.7302318 -2.2868793 -0.062165473
2.9689054 -2.4876773 1.0378644
2.0250714 -1.7010443 -0.7086466
2.7174501 -2.2834461 0.061956044
2.395715 -2.013809 -0.72254282
2.7118144 -2.2803259 0.18568799
2.5604608 -2.1530547 -0.65027708
2.7337751 -2.2996068 0.3125405
2.7206135 -2.2893465 -0.56316411
2.5908387 -2.1809161 0.41581824
2.7195256 -2.2900529 -0.43653604
2.9762483 -2.5071218 0.6163519
2.459409 -2.0717485 -0.28133872
2.9530451 -2.488457 0.75064266
2.7151349 -2.2887866 -0.18610668
2.9586563 -2.4949522 0.89350563
2.7405741 -2.311868 -0.062584333
2.9262464 -2.4693701 1.0259588
2.0250206 -1.7130934 -0.71071708
2.6758811 -2.2644989 0.061188139
2.3812342 -2.0158637 -0.72029334
2.6870728 -2.2755799 0.18453661
2.518471 -2.1327977 -0.64149988
2.6755641 -2.2666361 0.30678821
2.7367179 -2.3192637 -0.56817007
2.5544405 -2.1655567 0.4111872
2.5979676 -2.2032366 -0.41825563
2.9418712 -2.4957707 0.61103308
2.4582396 -2.0854762 -0.28203598
2.9144032 -2.4733434 0.74301028
2.717787 -2.3072984 -0.18683939
2.9172513 -2.4775124 0.8836078
2.7309635 -2.3201256 -0.062549427
2.8984721 -2.4633062 1.0192294
2.0278516 -1.7276688 -0.71382296
2.643609 -2.253072 0.060629662
2.3608365 -2.0127847 -0.71624422
2.6563182 -2.2655048 0.18296652
2.4945793 -2.1275618 -0.6373021
2.6494474 -2.2604434 0.30469647
2.7120776 -2.3146961 -0.5647285
2.5166719 -2.1486812 0.40631241
2.5827134 -2.2058456 -0.41703692
2.9136169 -2.4893434 0.60696578
2.4600334 -2.1018097 -0.28308186
2.8863504 -2.4669192 0.73804927
2.693018 -2.302494 -0.18568799
2.887852 -2.4699473 0.87730914
2.7243676 -2.3309445 -0.062584333
2.8663731 -2.4533098 1.0109472
2.0423346 -1.7523482 -0.72106987
2.6220715 -2.2505643 0.060315516
2.3537967 -2.021013 -0.71624422
2.6135468 -2.2448323 0.18055905
2.4692659 -2.1209064 -0.63272268
2.6234066 -2.2540967 0.30260473
2.7159657 -2.33445 -0.56723142
2.5016301 -2.1509817 0.40509373
2.5358686 -2.1811914 -0.41069973
2.8674755 -2.467289 0.59914404
2.4557023 -2.1129832 -0.28343046
2.8539145 -2.4564869 0.73194337
2.716748 -2.3392477 -0.1878861
2.8555887 -2.4596641 0.87011075
2.7222738 -2.3456614 -0.06272395
2.8431592 -2.4506874 1.0057708
2.0420523 -1.7645187 -0.72314042
2.5960455 -2.2440109 0.059896659
2.3496754 -2.0317664 -0.71714401
2.5890789 -2.2395687 0.17940767
2.4351206 -2.1063941 -0.62585354
2.5974429 -2.247596 0.300513
2.7092941 -2.3452091 -0.56754434
2.5162361 -2.1796319 -0.40874982
2.8409312 -2.4617596 0.59538966
2.454335 -2.1267614 -0.28412771
2.8319707 -2.4548607 0.72850877
2.6874406 -2.3303983 -0.18642069
2.823432 -2.4491858 0.8629123
2.7367244 -2.3748085 -0.063247517
2.8097866 -2.4390681 0.99697101
2.0446246 -1.7792453 -0.7262463
2.564064 -2.2320516 0.059338182
2.3484473 -2.0450752 -0.7189436
2.5676918 -2.2367852 0.17846562
2.4173911 -2.1058543 -0.62318224
2.5565355 -2.2278519 0.29667813
2.7010913 -2.3546519 -0.56754434
2.5086124 -2.1884019 -0.40874982
2.8099954 -2.452179 0.59069663
2.4438937 -2.1326957 -0.28377908
2.7952836 -2.4402001 0.72125804
2.6612372 -2.3239999 -0.18516463
2.7943192 -2.4410772 0.85661364
2.7223954 -2.3790836 -0.0631079
2.7619853 -2.4145315 0.98299474
2.0093434 -1.7609063 -0.71589351
2.5231762 -2.2119873 0.058570277
2.3442247 -2.0558298 -0.71984339
2.5418515 -2.229929 0.17720957
2.4070735 -2.11169 -0.62241894
2.5277784 -2.2183638 0.29423779
2.6809795 -2.3536403 -0.56504136
2.4655442 -2.1652713 0.4029001
2.5069237 -2.2023861 -0.40972477
2.7836127 -2.4463243 0.5869422
2.4424207 -2.1464744 -0.28447634
2.7587337 -2.4253137 0.71400726
2.6276126 -2.3108525 -0.18338521
2.7667606 -2.434083 0.85076493
2.7335892 -2.4057465 -0.063561663
2.7462902 -2.4177752 0.98040658
2.0147719 -1.7781363 -0.7200346
2.5019481 -2.2088702 0.058256131
2.3195064 -2.0485203 -0.71444458
2.5101037 -2.2176301 0.17553481
2.3879173 -2.1096807 -0.61936599
2.5035975 -2.2126601 0.29232034
2.6697876 -2.3603678 -0.56441563
2.452023 -2.1686039 0.40192512
2.5066543 -2.2177005 -0.41094348
2.7439926 -2.4285336 0.58037198
2.4438651 -2.1629097 -0.28552222
2.7296722 -2.4167089 0.70866466
2.6075687 -2.3094168 -0.18254784
2.7305334 -2.4191725 0.84221679
2.734154 -2.4232318 -0.063771099
2.7147057 -2.4068413 0.9721244
2.011441 -1.7877247 -0.72106987
2.4733005 -2.1989884 0.057767466
2.3123417 -2.0566044 -0.71444458
2.4769807 -2.2038095 0.17375539
2.3688047 -2.1075635 -0.6163131
2.4869292 -2.213438 0.29127449
2.6703842 -2.3775539 -0.56629282
2.4414737 -2.1745093 0.40143764
2.6057284 -2.3224351 0.55283946
2.4511738 -2.1846836 -0.28726533
2.7065659 -2.4131572 0.70484847
2.6591127 -2.3716817 -0.18673471
2.6886282 -2.3988492 0.83186907
2.7256787 -2.4327612 -0.063771099
2.6918771 -2.4034362 0.96694797
2.0080671 -1.797312 -0.72210521
2.45965 -2.2022729 0.057627846
2.3167615 -2.0750647 -0.7180438
2.4543979 -2.1991143 0.17270868
2.3511982 -2.1066482 -0.61364174
2.4599001 -2.2048182 0.28900844
2.6753056 -2.3987291 -0.56910866
2.4486458 -2.1962731 0.40387502
2.4881561 -2.2324944 -0.410456
2.447659 -2.1969302 0.52092683
2.4390848 -2.189234 -0.28674239
2.6762135 -2.4029157 0.69912422
2.5215456 -2.264838 -0.17762825
2.6657426 -2.3951952 0.82737005
2.5476258 -2.28987 -0.059791945
2.6619229 -2.3934433 0.95918339
1.9903015 -1.7939633 -0.71796405
2.4222448 -2.1840634 0.056929749
2.2993748 -2.0740025 -0.71489453
2.4396765 -2.2005525 0.17218532
2.3365424 -2.1082666 -0.61173368
2.4240878 -2.1880269 0.28569651
2.6815777 -2.4212911 -0.57223737
2.433599 -2.198154 0.40265635
2.4866314 -2.2460556 -0.41143093
2.3919928 -2.1613314 0.51060218
2.4240377 -2.1910548 -0.28587085
2.6459658 -2.3924916 0.69339991
2.5106623 -2.2709463 -0.1774189
2.6491139 -2.3961785 0.82467061
2.5148108 -2.275497 -0.059198562
2.6267586 -2.3776255 0.94934833
1.9872028 -1.8031498 -0.71899933
2.3987017 -2.1772997 0.056545798
2.2809429 -2.071136 -0.71129531
2.4190581 -2.196547 0.17124327
2.3324444 -2.1186433 -0.61249691
2.3976493 -2.1786349 0.28343046
2.6954596 -2.4501009 -0.5769304
2.4072032 -2.1888506 0.39948773
2.473295 -2.2489474 -0.410456
2.3716609 -2.157289 0.50778633
2.3976014 -2.1816494 -0.28360477
2.6147883 -2.3801081 0.68729407
2.4853966 -2.2631233 -0.17616285
2.6281853 -2.393142 0.82062149
2.5028162 -2.2797842 -0.059093848
2.6017244 -2.3707094 0.94313669
1.9926232 -1.8201529 -0.72314042
2.3752301 -2.1704042 0.056161843
2.2683086 -2.0734293 -0.70949566
2.3877928 -2.1834133 0.16956852
2.3148944 -2.1174967 -0.60982555
2.3757102 -2.1731265 0.28168735
2.6698322 -2.4430237 -0.57317597
2.3882174 -2.1860983 0.39753783
2.4566453 -2.2495234 -0.40899354
2.3480933 -2.1508772 0.50434476
2.3782198 -2.1792369 -0.28221029
2.5862026 -2.3706484 0.6819514
2.4789538 -2.2731352 -0.17626752
2.5968347 -2.3812287 0.8134231
2.503685 -2.2966175 -0.05930328
2.5749288 -2.3627965 0.93640739
1.9745661 -1.8169789 -0.71899933
2.3481328 -2.161489 0.055708081
2.2492256 -2.0711687 -0.7058965
2.3548012 -2.1691458 0.16778909
2.3085618 -2.1272974 -0.6102072
2.3574731 -2.172368 0.28046718
2.6448834 -2.4380653 -0.56973439
2.3510017 -2.1679232 0.39266306
2.4542203 -2.2638962 -0.4099685
2.3256767 -2.1460726 0.50121611
2.3482566 -2.1676676 -0.27959561
2.5645154 -2.3681245 0.67851686
2.5190203 -2.3269281 -0.1797217
2.5537343 -2.358995 0.80262542
2.5730894 -2.3777065 -0.061153233
2.549228 -2.3564823 0.93019569
1.9593925 -1.816324 -0.71589351
2.3372622 -2.1673615 0.055638272
2.2387619 -2.0767479 -0.70499665
2.329644 -2.1610529 0.16653302
2.2881699 -2.1233239 -0.6067726
2.3188305 -2.1525288 0.27680662
2.5997417 -2.4141381 -0.56191266
2.3052258 -2.1413984 0.38632584
2.3702896 -2.2026088 -0.3972941
2.2921245 -2.1299734 0.49558446
2.3202457 -2.1568601 -0.27715525
2.5375433 -2.3596818 0.67355579
2.3514843 -2.1874297 -0.16831245
2.527952 -2.3524086 0.79722661
2.317373 -2.1564524 -0.055254318
2.5183628 -2.344306 0.9219135
1.9586895 -1.8284255 -0.71796405
2.2818239 -2.1300697 0.054486416
2.2261655 -2.0788405 -0.70319706
2.3016529 -2.1500843 0.16506761
2.2821789 -2.1326385 -0.60715425
2.2923813 -2.1429222 0.27454057
2.3103266 -2.1596975 -0.50090319
2.2952123 -2.1463192 0.38583836
2.3267303 -2.1765542 -0.3912006
2.2918873 -2.1447103 0.49714881
2.2937939 -2.1472454 -0.2748892
2.5182381 -2.3573501 0.67050284
2.2931931 -2.147434 -0.16464894
2.5087595 -2.3501205 0.79362738
2.2923214 -2.1481202 -0.054835461
2.4876137 -2.3319428 0.91363126
1.9554309 -1.8375565 -0.71899933
2.2787454 -2.1421309 0.05459113
2.2188957 -2.0865986 -0.70319706
2.3032403 -2.1659145 0.16569565
2.2722342 -2.1375046 -0.60639101
2.2881646 -2.1532431 0.2748892
2.2797604 -2.1460848 -0.49589729
2.284816 -2.1515963 0.38535091
2.3162286 -2.1819406 -0.39071316
2.3020167 -2.1685526 0.50090319
2.2750609 -2.1439087 -0.27349472
2.4814229 -2.3391922 0.66287047
2.2813239 -2.1513147 -0.16433492
2.4835303 -2.3428168 0.78822857
2.2866402 -2.1570821 -0.054870363
2.4630067 -2.3242686 0.90741962
1.9405856 -1.836404 -0.71589351
2.2701769 -2.1483009 0.054556224
2.245929 -2.1260982 -0.71399474
2.2927654 -2.1711946 0.16548631
2.2747359 -2.1548743 -0.60906237
2.2893114 -2.1694398 0.27593508
2.2711973 -2.1522741 -0.49558446
2.2747872 -2.1564295 0.38486344
2.2960167 -2.177316 -0.3885195
2.2972996 -2.1792936 0.50152892
2.2733443 -2.1573229 -0.27419198
2.456563 -2.3311911 0.65829104
2.2727289 -2.1574931 -0.16423026
2.4559639 -2.3322527 0.78192991
2.290695 -2.1760688 -0.055149604
2.4436753 -2.322206 0.90327853
1.9484727 -1.8561541 -0.72106987
2.2742453 -2.1672487 0.054835461
2.25542 -2.1500604 -0.71939355
2.2880635 -2.1819413 0.16569565
2.2629387 -2.158736 -0.60791749
2.3022878 -2.1962733 0.27837545
2.2693868 -2.1656442 -0.49683592
2.3074503 -2.2027371 0.39168811
2.2855315 -2.1825752 -0.38803205
2.3139606 -2.2104962 0.50684774
2.2859659 -2.1845167 -0.27663234
2.4323919 -2.3252563 0.65409327
2.2648063 -2.1658084 -0.16423026
2.4280906 -2.3219557 0.77563131
2.2888651 -2.1895809 -0.055289224
2.4188056 -2.3146937 0.89706683
1.9500198 -1.8713089 -0.72417569
2.3081212 -2.2157297 0.055847701
2.2615802 -2.1718102 -0.72389257
2.3232608 -2.231822 0.1688358
2.2606735 -2.172457 -0.60944396
2.3430662 -2.2516346 0.28430203
2.2728269 -2.1848989 -0.49933887
2.3394251 -2.2497065 0.39851278
2.3604913 -2.2707582 -0.40216887
2.3414273 -2.2532058 0.51466948
2.4013863 -2.311713 -0.29162312
2.4082971 -2.3191757 0.64989549
2.4495986 -2.3597729 -0.17825629
2.4083362 -2.3200238 0.77203208
2.4564941 -2.3672426 -0.059547611
2.3963971 -2.3101358 0.89189047
1.9348143 -1.8703872 -0.72106987
2.3042972 -2.2283449 0.055952415
2.2662103 -2.1922791 -0.72794163
2.3197627 -2.2440844 0.16914983
2.2629523 -2.1898918 -0.61211532
2.3233457 -2.2491207 0.28290752
2.4506991 -2.3732345 -0.54032475
2.3382924 -2.265172 0.39973149
2.4566329 -2.3798118 -0.41996178
2.2867353 -2.2160003 0.50434476
2.431927 -2.3575244 -0.29632953
2.3790464 -2.3070672 0.64417118
2.4384794 -2.3655276 -0.17804694
2.3834383 -2.3121333 0.76663327
2.4353001 -2.3632689 -0.059233464
2.3633683 -2.2942655 0.88257295
1.9092184 -1.8579308 -0.71382296
2.2940292 -2.2331843 0.055882607
2.2491555 -2.1902649 -0.72479236
2.3194628 -2.2587314 0.16967319
2.2922413 -2.2330024 -0.62203735
2.3215823 -2.2623751 0.28360477
2.4230127 -2.3620436 -0.53594452
2.3449802 -2.2867727 0.40216887
2.4359369 -2.3754718 -0.41776815
2.2850299 -2.2290888 0.50559622
2.4155405 -2.3572271 -0.29528365
2.3489053 -2.2930009 0.63806528
2.4134741 -2.3568563 -0.17679088
2.3618155 -2.3064094 0.76213425
2.4202979 -2.3643448 -0.059058942
2.3405488 -2.2872384 0.87687898
1.9140869 -1.8750669 -0.71796405
2.2951808 -2.249177 0.056092035
2.2390964 -2.1949832 -0.72389257
2.3101382 -2.2654159 0.16956852
2.3142602 -2.2694581 -0.63005131
2.332557 -2.2881997 0.28587085
2.398248 -2.3534627 -0.53219014
2.375632 -2.3320832 0.40874982
2.4063849 -2.3630972 -0.41411206
2.2913268 -2.2508945 0.50872493
2.393497 -2.3512619 -0.29354054
2.3258853 -2.2856412 0.63386756
2.3771594 -2.3368435 -0.17469743
2.3315189 -2.2927775 0.7549358
2.3949234 -2.3559508 -0.058640085
2.3132734 -2.2764242 0.86963201
1.9102805 -1.8844502 -0.71899933
2.3371325 -2.3063354 0.057313703
2.2411289 -2.212369 -0.72704184
2.3562191 -2.3267941 0.17354605
2.2867672 -2.2582097 -0.62470871
2.3741648 -2.3453345 0.29197174
2.3787775 -2.3507118 -0.52968717
2.3505363 -2.3236148 0.40582496
2.3797722 -2.353337 -0.41094348
2.2736254 -2.2491546 0.50653487
2.3711104 -2.3455904 -0.2917974
2.3067286 -2.2826984 0.63081461
2.3547938 -2.3310761 -0.17365071
2.2985773 -2.2762201 0.74683756
2.371058 -2.3488157 -0.058256131
2.2943354 -2.2736065 0.86549091
1.9050615 -1.8924683 -0.71951699
2.3432524 -2.3285751 0.057662752
2.2264824 -2.213309 -0.72479236
2.3452501 -2.3321884 0.17333671
2.2872233 -2.2744846 -0.62699842
2.3447759 -2.3325307 0.28935707
2.355155 -2.3436737 -0.52624559
2.267848 -2.2575798 0.39290681
2.3546636 -2.3448207 -0.40801859
2.2685592 -2.2598655 0.5071606
2.3473816 -2.3383856 -0.28988001
2.2904029 -2.2824214 0.62852484
2.3381555 -2.3308215 -0.17302269
2.2795784 -2.2732215 0.74323833
2.3387773 -2.3330696 -0.057662752
2.2699757 -2.2652264 0.85927927
1.8943467 -1.895008 -0.71796405
2.3139069 -2.3155231 0.057139181
2.2201202 -2.2224462 -0.72524226
2.3201597 -2.323401 0.17208064
2.2640102 -2.2671731 -0.62280059
2.3112829 -2.3153203 0.28621945
2.3274252 -2.3323047 -0.52186543
2.24313 -2.2486176 0.38998193
2.3324471 -2.3389695 -0.40558121
2.2634463 -2.2705684 0.50778633
2.3181057 -2.3253994 -0.28726533
2.2630205 -2.2709336 0.62318224
2.3159094 -2.3248191 -0.17197597
2.2606289 -2.270118 0.7396391
2.310868 -2.3213782 -0.057174087
2.2457025 -2.2567041 0.85306764
1.8918034 -1.9057219 -0.71951699
2.293133 -2.310811 0.056825034
2.2068591 -2.2246485 -0.72344261
2.3021908 -2.3215585 0.17134793
2.2491705 -2.2680922 -0.62089252
2.2863548 -2.3063943 0.28412771
2.2970226 -2.317965 -0.51685953
2.2352672 -2.2564342 0.38998193
2.3130941 -2.335813 -0.4036313
2.2416098 -2.2644167 0.50465763
2.2903509 -2.3136537 -0.28482497
2.2343655 -2.2578869 0.61745793
2.2923298 -2.31727 -0.17082457
2.2389886 -2.2641389 0.73514009
2.295722 -2.32232 -0.05699956
2.2188008 -2.2452917 0.84582067
1.887852 -1.9150656 -0.72055227
2.2597883 -2.2931638 0.056196753
2.1922421 -2.2253969 -0.72119313
2.2394187 -2.2740805 0.16726573
2.2343519 -2.2689352 -0.6189844
2.2265742 -2.2618268 0.27767819
2.2709053 -2.3076651 -0.51279223
2.2412987 -2.2783742 0.39241934
2.2812648 -2.3198113 -0.39948773
2.2654998 -2.3045845 -0.28273323
2.2072053 -2.2460685 0.61211532
2.2506354 -2.2910628 -0.16831245
2.2201481 -2.2608173 0.73154086
2.249778 -2.2917898 -0.056057129
2.2109501 -2.2530229 0.84582067
1.8622358 -1.9023167 -0.71330529
2.2098114 -2.2581615 0.055149604
2.169471 -2.2177124 -0.71624422
2.2133136 -2.2633202 0.165905
2.212692 -2.2626843 -0.61516827
2.221451 -2.2724342 0.27802682
2.2158952 -2.2675428 -0.50215465
2.2416549 -2.294704 0.39388174
2.2176766 -2.2709513 -0.3897382
2.221607 -2.2757704 0.50371903
2.2017708 -2.2554507 -0.27576074
2.1883824 -2.2425187 0.60906237
2.1896267 -2.2445774 -0.16433492
2.1959164 -2.2518113 0.72614205
2.2110555 -2.2681274 -0.055289224
2.1909375 -2.248275 0.84116197
1.8690501 -1.9226575 -0.71848166
2.2005219 -2.2644274 0.055114701
2.1617165 -2.2252717 -0.71624422
2.2067912 -2.2724652 0.16600966
2.1965735 -2.2619436 -0.6128785
2.2093418 -2.2758863 0.27750388
2.1969612 -2.2639232 -0.49965176
2.1949294 -2.2626197 0.38705707
2.2083542 -2.2772532 -0.38949445
2.1869507 -2.25597 -0.2748892
2.1750765 -2.2445047 0.6075359
2.1901166 -2.2608144 -0.16496295
2.1704195 -2.2412636 0.72029334
2.1947796 -2.2672112 -0.055079795
2.161581 -2.2336969 0.83287972
1.8381763 -1.9041522 -0.70916426
2.182884 -2.2620223 0.054870363
2.1566415 -2.2356088 -0.71714401
2.1923101 -2.2725835 0.16548631
2.1845763 -2.2653575 -0.61173368
2.1806421 -2.2620683 0.2748892
2.1849329 -2.2673111 -0.49871314
2.1732461 -2.2559712 0.38461968
2.2017686 -2.2863781 -0.3897382
2.1622179 -2.2453074 0.49370724
2.1735353 -2.2578485 -0.27419198
2.1481695 -2.2322786 0.60219324
2.1808267 -2.2670062 -0.16485828
2.1531272 -2.2389936 0.71714401
2.181705 -2.2687111 -0.054940179
2.1300633 -2.2157841 0.82356226
1.8234969 -1.9021896 -0.70605838
2.1504619 -2.2432647 0.054242078
2.1357331 -2.2286782 -0.71264499
2.1677845 -2.2629149 0.16423026
2.1685081 -2.2644618 -0.60944396
2.1534441 -2.249517 0.27244884
2.1596441 -2.2559936 -0.49464583
2.1437936 -2.2402182 0.38071984
2.1763356 -2.2750189 -0.38656959
2.1407144 -2.2385647 0.49057853
2.1587572 -2.2582209 -0.27332041
2.1217628 -2.2195218 0.59685057
2.1539791 -2.2540102 -0.16339287
2.1349218 -2.2348485 0.71354479
2.1571996 -2.2589586 -0.054521319
2.1076424 -2.207835 0.81786817
1.822508 -1.9138218 -0.70812893
2.1329672 -2.2406189 0.053997744
2.113163 -2.2205913 -0.70769608
2.1378465 -2.2473149 0.1625555
2.1569276 -2.2673731 -0.60829914
2.1391077 -2.2494268 0.2715773
2.1395071 -2.2506332 -0.49182999
2.1222861 -2.2332981 0.37828246
2.1519747 -2.2653315 -0.38364473
2.1247258 -2.2374291 0.48870131
2.1398873 -2.2541826 -0.2719259
2.1004856 -2.212676 0.59303439
2.1254756 -2.2397838 -0.1618228
2.1136959 -2.2281494 0.70904577
2.1382933 -2.2548668 -0.054242078
2.0919485 -2.2067666 0.81476241
1.8168085 -1.9218929 -0.7086466
2.1168907 -2.2393317 0.053788319
2.100045 -2.2222886 -0.7058965
2.114902 -2.2387929 0.1614041
2.1324275 -2.2581344 -0.60371965
2.1158044 -2.2413149 0.26965985
2.1176863 -2.2440932 -0.48870131
2.1035781 -2.2291429 0.37633255
2.1290703 -2.2569456 -0.38096359
2.1006398 -2.2275863 0.48494691
2.1210725 -2.2500403 -0.27053142
2.0842826 -2.2117872 0.59074467
2.1035569 -2.233021 -0.16077606
2.0814674 -2.2103448 0.70094752
2.108475 -2.2390242 -0.053683605
2.072315 -2.2013955 0.81010365
1.8127331 -1.9310398 -0.70968187
2.1004586 -2.2383263 0.053578887
2.0865529 -2.2242854 -0.70409685
2.0957525 -2.2348742 0.16056673
2.1030452 -2.242651 -0.59761381
2.0957043 -2.2356048 0.26809105
2.1084893 -2.2500303 -0.48838848
2.0845368 -2.2252479 0.37438264
2.0990741 -2.2415502 -0.37706378
2.0735614 -2.215081 0.48056671
2.0991979 -2.2432518 -0.26878831
2.068501 -2.2104483 0.58845496
2.0943851 -2.2388918 -0.1606714
2.0657527 -2.2090569 0.69824809
2.081136 -2.2262857 -0.053194933
2.0536807 -2.1976843 0.8059625
1.7924731 -1.9235377 -0.70450544
2.0735464 -2.225163 0.053090218
2.0734627 -2.2258518 -0.70229727
2.079772 -2.2334065 0.15993871
2.0867851 -2.2417221 -0.5953241
2.0657799 -2.2199337 0.26530206
2.0773559 -2.2331553 -0.48306966
2.0713484 -2.226697 0.37340769
2.0804222 -2.2372344 -0.37511387
2.0577471 -2.2136247 0.47868952
2.0710111 -2.228673 -0.26617363
2.0470235 -2.2036309 0.58463877
2.0712152 -2.2304537 -0.15952002
2.0470359 -2.2051873 0.69464886
2.0624683 -2.221812 -0.052915696
2.0262859 -2.1835983 0.79819798
1.7804995 -1.9241111 -0.70243496
2.0463665 -2.2121968 0.052601553
2.0560291 -2.2234209 -0.69914788
2.0597594 -2.2274549 0.15899664
2.0642881 -2.233134 -0.59112626
2.0485532 -2.2168882 0.2640819
2.0534635 -2.2229805 -0.47931525
2.0470123 -2.2167733 0.37048283
2.0654762 -2.237551 -0.37389517
2.0366089 -2.206279 0.47556084
2.0524092 -2.2241747 -0.26477915
2.0206828 -2.1905601 0.57929617
2.0498774 -2.2229874 -0.15847328
2.0314012 -2.2037225 0.69194949
2.0465684 -2.220176 -0.052706268
2.0081785 -2.1792929 0.79405683
1.7763864 -1.9331595 -0.70347023
2.0281949 -2.2071912 0.052322313
2.0301883 -2.2101347 -0.69284928
2.0303576 -2.2110932 0.1573219
2.0471871 -2.2302022 -0.58845496
2.0354137 -2.2181532 0.26338464
2.0353961 -2.2181339 -0.4768123
2.0235479 -2.2059946 0.36755794
2.0406036 -2.225368 -0.37072656
2.0168819 -2.2002692 0.472745
2.0338647 -2.2195737 -0.26338464
1.9974914 -2.1798792 0.57471669
2.0209095 -2.2062085 -0.15679854
2.010922 -2.1960745 0.68745047
2.0253041 -2.2125561 -0.052357223
1.9940383 -2.1791632 0.79146868
1.7725708 -1.9418933 -0.70450544
2.0137384 -2.2068717 0.052147791
2.0198348 -2.2143285 -0.69194949
2.0095544 -2.2030582 0.15627518
2.0265522 -2.2224715 -0.58463877
2.0173094 -2.2131112 0.26199016
2.0196581 -2.2164648 -0.47493511
2.0038042 -2.1998367 0.36536431
2.0141122 -2.2119288 -0.36731425
1.9962747 -2.1923394 0.46961632
2.0211287 -2.2204127 -0.26268741
1.985906 -2.1824822 0.57357186
2.0051324 -2.2043846 -0.15617052
1.9875115 -2.1857786 0.6820516
2.0125747 -2.213342 -0.052217599
1.9842021 -2.1829047 0.79043341
1.7489151 -1.9294611 -0.69777614
1.9956654 -2.2016845 0.05186855
2.0046296 -2.2123499 -0.68925005
1.9924663 -2.1996973 0.15554248
2.0016513 -2.2106133 -0.57967776
1.9975386 -2.2068453 0.26042137
2.0003662 -2.2099693 -0.47211927
1.9858429 -2.1946938 0.36341441
2.0041029 -2.2156513 -0.36682677
1.9740367 -2.1831772 0.46617478
1.9946615 -2.2067609 -0.26024702
1.9694426 -2.1788604 0.57090056
1.9897774 -2.2021298 -0.15554248
1.9671898 -2.1778963 0.67755258
1.9860743 -2.1995749 -0.051728934
1.9558597 -2.1668725 0.78215116
1.7373365 -1.929508 -0.69570565
1.9745899 -2.193774 0.051519506
1.9864671 -2.2077446 -0.68565083
1.9780974 -2.1992145 0.15501912
1.987745 -2.2099404 -0.57776964
1.9662312 -2.186789 0.25728375
1.9820758 -2.2051849 -0.46961632
1.9702097 -2.1927528 0.36195198
1.9870712 -2.2122955 -0.36512056
1.961125 -2.184175 0.46492329
1.9686973 -2.1926086 -0.25780669
1.9434656 -2.1652672 0.5655579
1.976743 -2.2031159 -0.1551238
1.9491661 -2.1731441 0.67395335
1.9730445 -2.2005386 -0.051589314
1.9302326 -2.1535466 0.77490425
1.7280153 -1.9326799 -0.69467032
1.950929 -2.1827619 0.051100649
1.9683615 -2.2030396 -0.6820516
1.9610955 -2.1956787 0.15428641
1.9669408 -2.2022231 -0.57395351
1.958586 -2.193639 0.25728375
1.952005 -2.1870368 -0.46429756
1.9493277 -2.1848044 0.35951459
1.9700873 -2.208848 -0.36341441
1.9403428 -2.1762629 0.46179458
1.954402 -2.1920314 -0.25693512
1.9241391 -2.1588476 0.5621233
1.9477824 -2.1861429 -0.15344904
1.9312 -2.1682928 0.67035419
1.9600322 -2.2014387 -0.051449694
1.9149971 -2.1516128 0.77179843
1.7186934 -1.9358108 -0.69363505
1.9300241 -2.1746027 0.0507516
1.9451398 -2.1924045 -0.67665279
1.9428172 -2.1905568 0.15344904
1.9540309 -2.2032003 -0.57242703
1.937699 -2.185554 0.25554064
1.9391179 -2.1879239 -0.46304604
1.9206272 -2.1678224 0.35561478
1.9426231 -2.1934206 -0.35975835
1.9222589 -2.171191 0.45929164
1.9414555 -2.1928735 -0.25623786
1.9048814 -2.1523194 0.55868876
1.9229351 -2.1734827 -0.1520883
1.9081271 -2.1575038 0.66495538
1.9390907 -2.1932857 -0.051100649
1.8946817 -2.1438088 0.76662207
1.7068154 -1.936002 -0.6915645
1.9171327 -2.1753256 0.050611977
1.9297457 -2.1904075 -0.67395335
1.9166785 -2.1763411 0.15198363
1.9333529 -2.1952744 -0.56861085
1.9247917 -2.1863227 0.25484338
1.9210287 -2.1828163 -0.46054313
1.9051811 -2.1655712 0.35415235
1.9231564 -2.1867726 -0.35756469
1.9042341 -2.166019 0.45678869
1.9232649 -2.1876659 -0.25484338
1.8895806 -2.1501071 0.55639905
1.9100639 -2.17418 -0.15166962
1.8851534 -2.1465805 0.65955657
1.9129529 -2.1790023 -0.050611977
1.8769928 -2.1387935 0.76248091
1.7013196 -1.9434018 -0.69208211
1.9042604 -2.1759849 0.05047236
1.9156723 -2.1897967 -0.67170388
1.9011812 -2.1739976 0.15135561
1.9024149 -2.1754084 -0.56174171
1.9040353 -2.1780281 0.25310028
1.9081981 -2.1835587 -0.45929164
1.8923863 -2.1662283 0.3531774
1.9102883 -2.1874914 -0.35658973
1.8732784 -2.1458664 0.45115703
1.9025145 -2.1793568 -0.25310028
1.8717369 -2.1448562 0.5533461
1.8945851 -2.1718035 -0.15104158
1.8674024 -2.141398 0.65595734
1.886939 -2.1645634 -0.050123312
1.8568236 -2.1307681 0.75730455
1.6818514 -1.9347486 -0.68690574
1.8822248 -2.1660151 0.050088406
1.8926811 -2.1788163 -0.66630507
1.8791763 -2.1640325 0.15020421
1.8896607 -2.176106 -0.56021523
1.8794421 -2.1651015 0.25083423
1.886323 -2.1737947 -0.45585006
1.8796102 -2.1668227 0.35220242
1.889636 -2.1791487 -0.35415235
1.8606008 -2.1464217 0.44990557
1.87793 -2.1664131 -0.25083423
1.8565245 -2.1424749 0.55105644
1.8817617 -2.1723652 -0.15062289
1.8522623 -2.1390643 0.65325791
1.8741366 -2.1650891 -0.049983691
1.8367337 -2.122628 0.75212818
1.6713008 -1.9362205 -0.68535286
1.8563633 -2.1513767 0.049599741
1.8494252 -2.1440921 -0.6537078
1.866394 -2.1645284 0.14978553
1.8730789 -2.1722813 -0.55754393
1.8588648 -2.1565573 0.2490911
1.8645396 -2.1639049 -0.45240852
1.8564888 -2.1553216 0.34927759
1.8781319 -2.1812184 -0.35342112
1.845365 -2.1439207 0.44802836
1.8599584 -2.1608748 -0.24943975
1.8311077 -2.1281075 0.54571378
1.8624456 -2.1652927 -0.14968085
1.8397022 -2.1396062 0.65145832
1.8561398 -2.1594861 -0.049704451
1.8192412 -2.1173043 0.74798709
1.6645319 -1.9420427 -0.68535286
1.8358313 -2.1426578 0.049250688
1.8292527 -2.1357341 -0.64920878
1.8497339 -2.1604099 0.14905281
1.8578235 -2.1698582 -0.55525422
1.8461436 -2.1569784 0.24839386
1.8505538 -2.1628952 -0.4508442
1.8360512 -2.1467032 0.3468402
1.8511566 -2.1651292 -0.34976503
1.8250358 -2.1353326 0.44489968
1.8472263 -2.1612959 -0.24874248
1.8160163 -2.1255305 0.54342401
1.8393105 -2.1535559 -0.14842479
1.819569 -2.1311944 0.6469593
1.8356088 -2.1507416 -0.049355406
1.8043159 -2.1148236 0.74488121
1.6665074 -1.9581394 -0.68897635
1.8257494 -2.1460068 0.04918088
1.8230489 -2.1435907 -0.64965874
1.8357131 -2.159245 0.14852946
1.8387934 -2.1628683 -0.55181968
1.8321519 -2.1558185 0.24752231
1.8340397 -2.1588032 -0.44865409
1.8234065 -2.1470468 0.34586522
1.8423028 -2.1700644 -0.34952128
1.817571 -2.1416903 0.44489968
1.8293571 -2.1555779 -0.24734798
1.7984251 -2.11988 0.54037106
1.8214476 -2.1477773 -0.14758742
1.7995168 -2.1226685 0.64246029
1.8203332 -2.1479826 -0.049145978
1.7944255 -2.1181612 0.74384594
1.6521803 -1.9550915 -0.68587047
1.8105047 -2.1432014 0.048971456
1.8155553 -2.1499414 -0.64965874
1.8036865 -2.1366427 0.1465407
1.8122363 -2.146771 -0.54609537
1.810481 -2.1454513 0.24560487
1.8163035 -2.1531131 -0.44615117
1.8082228 -2.1442935 0.34440279
1.8129663 -2.1506801 -0.34537774
1.7884446 -2.1223421 0.43958092
1.8089828 -2.1467147 -0.24560487
1.7821604 -2.115634 0.53769976
1.8036476 -2.1419001 -0.14675003
1.7870766 -2.1229734 0.64066064
1.7947989 -2.1329029 -0.048657309
1.7745849 -2.1096282 0.73866957
1.6316862 -1.9445679 -0.68017644
1.7927314 -2.1372516 0.048692215
1.8080397 -2.156266 -0.64965874
1.791085 -2.1368032 0.14612199
1.8009479 -2.1485698 -0.54495054
1.7876257 -2.1334321 0.24351314
1.7960922 -2.1442966 -0.44302243
1.7892572 -2.136894 0.34220913
1.8003515 -2.1509066 -0.34440279
1.7721518 -2.1179671 0.43739083
1.7835786 -2.1316237 -0.24316452
1.7684666 -2.1143124 0.5357917
1.7884731 -2.1389897 -0.14612199
1.7746559 -2.1232178 0.63886106
1.7822142 -2.1330166 -0.048517693
1.7498726 -2.0950522 0.73142266
1.6285981 -1.9547043 -0.68172938
1.7673435 -2.1219845 0.048203547
1.7880329 -2.1475875 -0.64515966
1.7785046 -2.1369016 0.14570332
1.7833897 -2.1427712 -0.54189759
1.7712479 -2.128938 0.24229297
1.774702 -2.133847 -0.43958092
1.7754416 -2.1354945 0.34099045
1.787757 -2.1510711 -0.34342784
1.7622234 -2.1211014 0.43676507
1.7684878 -2.1286416 -0.24211864
1.7410064 -2.0963075 0.5296858
1.7720652 -2.1344626 -0.1453893
1.7572776 -2.1174028 0.63526183
1.772204 -2.1361465 -0.048447877
1.7339162 -2.0907385 0.72779918
1.6180711 -1.9559115 -0.68017644
1.7522794 -2.1188946 0.047994118
1.7656257 -2.1357923 -0.63976085
1.7583116 -2.127701 0.1446566
1.7683954 -2.1399031 -0.53960788
1.756192 -2.1258912 0.24124709
1.7559221 -2.1263206 -0.43676507
1.7452292 -2.1141236 0.33660313
1.7676029 -2.1419873 -0.34099045
1.7497805 -2.1211443 0.43551362
1.7534394 -2.1255798 -0.24107277
1.728682 -2.0963132 0.52815932
1.744277 -2.115977 -0.14371455
1.737483 -2.1084847 0.63076282
1.7558366 -2.1315157 -0.048203547
1.7229235 -2.0923042 0.7262463
1.6161385 -1.9675192 -0.68224704
1.7423342 -2.1219075 0.047924306
1.7532141 -2.1359174 -0.63796127
1.7407386 -2.1214733 0.14381923
1.7509524 -2.1339209 -0.53655493
1.7449698 -2.1273873 0.24072415
1.7447317 -2.1278541 -0.43582645
1.7302886 -2.1109912 0.33514073
1.7450176 -2.1297185 -0.33806559
1.7298485 -2.1119573 0.43238491
1.7422218 -2.1270638 -0.24054985
1.7176229 -2.0977778 0.52701449
1.72929 -2.1127799 -0.14308652
1.7128359 -2.0934217 0.62446415
1.7344595 -2.120605 -0.047819596
1.7094954 -2.0908282 0.72365808
1.5994928 -1.961172 -0.67810595
1.724808 -2.1155772 0.04764507
1.7445165 -2.1405134 -0.63751131
1.7295381 -2.1228914 0.1435052
1.7286124 -2.1217554 -0.53197551
1.7274678 -2.1211064 0.23932965
1.7285633 -2.123208 -0.43363637
1.7153912 -2.10778 0.33367831
1.7300563 -2.1265578 -0.33660313
1.7087562 -2.101125 0.42894334
1.7222155 -2.1176748 -0.23880674
1.7028593 -2.0946207 0.52472478
1.7168663 -2.1126032 -0.14266783
1.695688 -2.0872879 0.62086499
1.711919 -2.1080189 -0.047400735
1.6912284 -2.0832837 0.71899933
1.5829113 -1.9547327 -0.6739648
1.7060894 -2.1075969 0.047330927
1.728453 -2.1359859 -0.63436204
1.7158368 -2.1211517 0.14298184
1.7162567 -2.121671 -0.53044903
1.7025146 -2.1054339 0.2368893
1.7099652 -2.1154029 -0.43082058
1.7005373 -2.104491 0.33221585
1.7226228 -2.1325839 -0.33660313
1.6939654 -2.0978551 0.42706612
1.6997926 -2.1050718 -0.23671499
1.6856724 -2.0883305 0.52167183
1.706973 -2.1154747 -0.14245848
1.6786039 -2.0810597 0.61726576
1.624218 -2.0143538 -0.045166828
1.6657611 -2.0666132 0.71123475
1.5736574 -1.9572349 -0.67292953
1.6874474 -2.0995114 0.047016785
1.7124428 -2.1313722 -0.63121271
1.7034194 -2.1208997 0.14256316
1.7023233 -2.1202924 -0.52854097
1.6889181 -2.103596 0.23601775
1.6840241 -2.0982506 -0.42612755
1.6832429 -2.098027 0.33026594
1.7089583 -2.130841 -0.33538446
1.6841608 -2.1006732 0.42644039
1.6920657 -2.1112878 -0.23671499
1.6645042 -2.0776408 0.517474
1.68922 -2.1092451 -0.14162111
1.6713296 -2.0869062 0.61726576
1.5259448 -1.9060537 -0.042618778
1.647673 -2.0588403 0.70657599
1.5688831 -1.9660097 -0.6739648
1.6722589 -2.0963025 0.046807356
1.6924695 -2.1223981 -0.62671363
1.6782051 -2.1052639 0.14109775
1.685976 -2.1157699 -0.52586961
1.6737467 -2.1004229 0.23497188
1.6738608 -2.1013184 -0.42550179
1.6656497 -2.0917592 0.32831606
1.6887738 -2.1215591 -0.33294708
1.6641505 -2.0913746 0.42331171
1.6768745 -2.10812 -0.23566914
1.6446592 -2.0683606 0.51365787
1.6690499 -2.0997875 -0.1405744
1.6491181 -2.0747118 0.61186689
1.4990443 -1.8865838 -0.042060301
1.6389146 -2.0633531 0.70605838
1.5664647 -1.9778042 -0.6760354
1.6583577 -2.0945787 0.04663283
1.6750041 -2.1163628 -0.62311447
1.6584511 -2.095448 0.14005104
1.6676173 -2.1077852 -0.52243507
1.6610934 -2.1002927 0.23427464
1.6636975 -2.1043401 -0.42487606
1.6505865 -2.0885057 0.3268536
1.6616641 -2.1025224 -0.32904723
1.6507173 -2.0894206 0.42174736
1.6620964 -2.1045787 -0.23462325
1.6349962 -2.0710073 0.51289463
1.6567609 -2.0993292 -0.1401557
1.6273789 -2.0620985 0.60646808
1.4874957 -1.885525 -0.041920681
1.6328983 -2.0705779 0.70657599
1.5527309 -1.9738775 -0.67292953
1.6464583 -2.0937788 0.04649321
1.6547294 -2.1050527 -0.61816555
1.6391503 -2.0852339 0.13900432
1.6448493 -2.093236 -0.517474
1.6442736 -2.093255 0.23288015
1.6469504 -2.0974164 -0.42237309
1.6375232 -2.0861602 0.32563493
1.6473287 -2.0986524 -0.32758483
1.6206106 -2.0653558 0.41580287
1.6477304 -2.1006732 -0.23357739
1.6256968 -2.0733278 0.51213133
1.6423974 -2.0953803 -0.13952768
1.6205318 -2.0674841 0.60646808
1.4639683 -1.8684105 -0.041432012
1.6069635 -2.0516479 0.69829381
1.5437981 -1.9759712 -0.67189431
1.63089 -2.0881951 0.046248876
1.6405442 -2.1013124 -0.61546612
1.6343191 -2.0940921 0.13921365
1.635483 -2.0955834 -0.51671082
1.6226166 -2.0798457 0.23078841
1.6326975 -2.0935204 -0.4204959
1.6220528 -2.0806203 0.32392874
1.6387728 -2.102824 -0.32734108
1.6061074 -2.0616503 0.41392565
1.6260619 -2.0872648 -0.23148565
1.6055434 -2.0616689 0.50793356
1.6280787 -2.0913591 -0.13889964
1.6013371 -2.0577488 0.60196906
1.4623485 -1.8798227 -0.041571636
1.5879331 -2.0419946 0.69311744
1.5735967 -2.0286684 -0.68794107
1.6064361 -2.0717516 0.045760211
1.6308117 -2.1039455 -0.61456633
1.6208827 -2.0918901 0.13869029
1.6257532 -2.0981758 -0.51594758
1.6116863 -2.0807714 0.23026547
1.6157047 -2.0867116 -0.41799295
1.60506 -2.0737109 0.32197884
1.6277782 -2.1038213 -0.32660985
1.5916495 -2.057869 0.41204843
1.6090143 -2.0803201 -0.23009115
1.5887302 -2.0548353 0.50488061
1.6134404 -2.0875478 -0.13827161
1.5965273 -2.0664101 0.60286885
1.4704455 -1.9039074 -0.041990492
1.5748926 -2.0398793 0.69052929
1.5877223 -2.0616994 -0.69725859
1.5943152 -2.071008 0.04562059
1.6068189 -2.0880039 -0.60826772
1.606264 -2.088037 0.13806225
1.6088427 -2.0913892 -0.51289463
1.6019841 -2.0832257 0.22991684
1.6011876 -2.082942 -0.41611573
1.5857159 -2.0635607 0.31954145
1.6083318 -2.0937481 -0.32417247
1.5820503 -2.0602789 0.4114227
1.6017427 -2.0859239 -0.23009115
1.5743754 -2.0510244 0.50259089
1.5939851 -2.0773218 -0.1372249
1.579816 -2.0596006 0.59926963
1.4783921 -1.9280714 -0.042409346
1.5630615 -2.0392311 0.68845868
1.5805161 -2.067229 -0.69725859
1.5822191 -2.0702055 0.045480974
1.5924221 -2.0843091 -0.60556829
1.5807819 -2.0698218 0.13649218
1.5896167 -2.0813899 -0.50907844
1.5826124 -2.0729685 0.22817372
1.5867165 -2.0790968 -0.41423854
1.573687 -2.0627704 0.31856647
1.5961987 -2.0930357 -0.32319754
1.574849 -2.0657887 0.4114227
1.5944518 -2.0915024 -0.23009115
1.5624464 -2.0502615 0.50106448
1.5843035 -2.0796955 -0.13701554
1.5560881 -2.0433974 0.59297103
1.4655968 -1.9252644 -0.042234823
1.5571036 -2.0462124 0.68897635
1.5487626 -2.0404193 -0.68638813
1.5725659 -2.0725298 0.045411162
1.5780706 -2.0805392 -0.60286885
1.5687205 -2.0689614 0.1360735
1.5728523 -2.0744107 -0.50602549
1.5705528 -2.0721292 0.22747649
1.5746776 -2.0783246 -0.41298702
1.5592859 -2.0587566 0.31710407
1.5745037 -2.0796027 -0.32027265
1.5461706 -2.0429211 0.40579104
1.5703083 -2.0748138 -0.22765081
1.5458038 -2.0431776 0.4980115
1.5649868 -2.069283 -0.13596882
1.5442448 -2.0425985 0.59117138
1.4648958 -1.9383452 -0.042409346
1.5383065 -2.036221 0.68379998
1.5323297 -2.0334702 -0.68224704
1.5532899 -2.0620339 0.045062114
1.5684543 -2.0829215 -0.60196906
1.5614889 -2.0744245 0.1360735
1.5585172 -2.0704768 -0.50373578
1.5525286 -2.0632703 0.22590767
1.5555388 -2.0680223 -0.40985835
1.5461249 -2.0562534 0.31588537
1.5648494 -2.0819125 -0.31978518
1.5366569 -2.0451474 0.40516531
1.5534817 -2.0675397 -0.22625631
1.5339463 -2.0422823 0.49648505
1.5529573 -2.0683448 -0.13555014
1.5347658 -2.0448594 0.59027159
1.4617211 -1.9482456 -0.042514063
1.5219167 -2.0292144 0.67965883
1.5067067 -2.0140564 -0.6739648
1.5293165 -2.0450237 0.044573449
1.5541732 -2.0790186 -0.59926963
1.5506514 -2.0750628 0.13575949
1.5477549 -2.0711865 -0.50259089
1.5381628 -2.0591002 0.22486182
1.5341277 -2.0544462 -0.40610394
1.5318131 -2.0520935 0.31442294
1.5433266 -2.0682707 -0.31686032
1.5295087 -2.050499 0.40516531
1.5367252 -2.0601735 -0.22486182
1.5150725 -2.0318851 0.49266884
1.5337918 -2.0577395 -0.13450342
1.5159754 -2.0345778 0.58577257
1.4632732 -1.9645621 -0.042758394
1.5090554 -2.026767 0.67707068
1.4823898 -1.9960395 -0.66620022
1.5233607 -2.051955 0.044608355
1.5329705 -2.0656524 -0.59387082
1.5291189 -2.0612144 0.13450342
1.5358366 -2.0702696 -0.50106448
1.5274055 -2.0596557 0.22433887
1.5222415 -2.053441 -0.40485242
1.5140034 -2.0430737 0.31222928
1.5396426 -2.0784304 -0.31759155
1.5223417 -2.0558255 0.40516531
1.5318956 -2.0687275 -0.22521043
1.4939537 -2.0182257 0.48808944
1.5147194 -2.0470259 -0.13345671
1.499593 -2.0273232 0.58217335
1.4516509 -1.9632264 -0.042618778
1.4973782 -2.0258079 0.67500007
1.4765598 -2.0027568 -0.66671789
1.507884 -2.0459917 0.044364017
1.5141919 -2.0553017 -0.5893718
1.5077024 -2.0472407 0.13324735
1.5165992 -2.0600746 -0.49724829
1.5131193 -2.0553477 0.22329301
1.5080395 -2.0491965 -0.40297523
1.4998047 -2.0387521 0.31076685
1.5123855 -2.0566053 -0.31344795
1.5011162 -2.0420277 0.40141091
1.5148646 -2.0614839 -0.22381593
1.4865466 -2.0236876 0.48808944
1.502478 -2.0461242 -0.13303801
1.4821265 -2.018409 0.57812428
1.448339 -1.9731177 -0.042723492
1.4800119 -2.0170047 0.67034137
1.4589432 -1.994123 -0.66205913
1.4956532 -2.0450482 0.0442244
1.5020484 -2.0545449 -0.58757222
1.4931178 -2.0430782 0.13261932
1.4974574 -2.0497668 -0.4934321
1.4961736 -2.0480094 0.22189851
1.4981884 -2.0515192 -0.40234947
1.4852996 -2.0346155 0.30930442
1.5048374 -2.0621345 -0.31344795
1.4796517 -2.0283649 0.39765644
1.4932119 -2.0477042 -0.22172421
1.4744935 -2.0227768 0.48656297
1.4902637 -2.0451608 -0.13261932
1.4712757 -2.0191026 0.57677454
1.4399202 -1.9767966 -0.042688586
1.4657865 -2.0130453 0.66723549
1.4459497 -1.9916404 -0.65947098
1.4764022 -2.0343323 0.043875352
1.4922193 -2.0568814 -0.58667237
1.480113 -2.040194 0.13209596
1.4833776 -2.0454452 -0.49114239
1.4769632 -2.0373483 0.22015539
1.4848635 -2.0489991 -0.40078515
1.4789971 -2.0416534 0.30954817
1.4941365 -2.0625522 -0.31271678
1.4702452 -2.0303178 0.39703071
1.4720356 -2.0335374 -0.21963248
1.4582163 -2.0151875 0.48351002
1.4749217 -2.0390222 -0.13188663
1.4550818 -2.0115943 0.57317531
1.4400414 -1.9915335 -0.042898018
1.442907 -1.9962302 0.65998858
1.4438564 -2.0026927 -0.66154152
1.4579563 -2.0229943 0.043526303
1.4762774 -2.0491695 -0.58307314
1.4733393 -2.0450912 0.13209596
1.4719974 -2.0439808 -0.48961592
1.4643785 -2.0341501 0.21928383
1.4653685 -2.0362747 -0.39734361
1.4583077 -2.027209 0.30662328
1.4791739 -2.0562153 -0.31101057
1.4588914 -2.0287671 0.39577925
1.4629581 -2.0351717 -0.21928383
1.4412149 -2.0056629 0.48007545
1.4599956 -2.0325472 -0.13115391
1.4461294 -2.0132432 0.57227552
1.4357619 -1.9995464 -0.042967826
1.4283937 -1.9900181 0.6563651
1.4360827 -2.005899 -0.66102386
1.4489123 -2.0245657 0.043456491
1.4570016 -2.0366197 -0.57812428
1.4595768 -2.0402193 0.13146794
1.4606429 -2.0424631 -0.48808944
1.4529903 -2.0325117 0.21858659
1.4517168 -2.0314796 -0.39546639
1.4411925 -2.0174963 0.30442965
1.4619623 -2.0465717 -0.30881694
1.4429721 -2.0207331 0.3932763
1.4492559 -2.0302825 -0.21823798
1.4277141 -2.0008423 0.47778577
1.4451286 -2.0259955 -0.13042122
1.4349185 -2.0116816 0.57047588
1.4407327 -2.0205786 -0.043316875
1.4240294 -1.9978905 0.65740043
1.4305423 -2.0122249 -0.66154152
1.437557 -2.0228393 0.043316875
1.4423397 -2.0303197 -0.57497495
1.4412361 -2.0287664 0.13042122
1.4447681 -2.0344896 -0.48503649
1.4427824 -2.032445 0.21806367
1.4403995 -2.0298386 -0.39421493
1.4287517 -2.0141687 0.30321094
1.4448308 -2.0368361 -0.30662328
1.424837 -2.0093935 0.39014763
1.4425154 -2.0350771 -0.21823798
1.417666 -2.0007603 0.47664091
1.4337846 -2.0242572 -0.13000253
1.4113441 -1.9925752 0.56372738
1.4340245 -2.0253451 -0.043316875
1.4095837 -1.9915633 0.65377688
1.4164761 -2.0079827 -0.6584357
1.4278286 -2.024826 0.043247063
1.4348885 -2.0355923 -0.57497495
1.4257358 -2.0226078 0.12968852
1.4282548 -2.0269325 -0.48198354
1.4261446 -2.0246882 0.21666917
1.4306756 -2.0318739 -0.39358914
1.4190745 -2.0161455 0.3027235
1.4290032 -2.0310047 -0.30491713
1.4060956 -1.9984467 0.38701892
1.4258771 -2.027313 -0.21684349
1.408065 -2.0027306 0.47587767
1.4229105 -2.0245967 -0.12968852
1.404803 -1.9995743 0.56417727
1.4127967 -2.0109525 -0.042898018
1.3956133 -1.987231 0.65067112
1.4028099 -2.0034201 -0.65532982
1.4119302 -2.0164452 0.042967826
1.4225429 -2.0323567 -0.57272542
1.418667 -2.0275724 0.12968852
1.4211708 -2.0319057 -0.48198354
1.4065105 -2.0116925 0.21475175
1.4148747 -2.0236554 -0.39108619
1.4146553 -2.0240943 0.30321094
1.4177128 -2.029223 -0.30394217
1.3900628 -1.9903865 0.38451597
1.4073867 -2.0159411 -0.21510038
1.3924253 -1.9945107 0.47282472
1.4127595 -2.0243905 -0.1293745
1.3925897 -1.9962305 0.5619278
1.4034811 -2.0125914 -0.04282821
1.3776206 -1.9762427 0.64549476
1.3939531 -2.0048888 -0.65429455
1.3911879 -2.001657 0.042548969
1.4109925 -2.0309083 -0.57092583
1.4093024 -2.0292311 0.12947917
1.4099456 -2.0301573 -0.48045707
1.3998317 -2.0163457 0.21475175
1.3942871 -2.0091078 -0.38733178
1.3962662 -2.0127096 0.30077356
1.4072273 -2.0292659 -0.30321094
1.3831065 -1.9952265 0.38451597
1.3980715 -2.0175664 -0.21475175
1.3765091 -1.9864495 0.46977177
1.3943119 -2.0128911 -0.12832777
1.3845037 -1.9994771 0.56147784
1.3896188 -2.0076127 -0.042618778
1.3663169 -1.9746846 0.64342415
1.3833042 -2.0052135 -0.65274167
1.3819212 -2.0032086 0.042479157
1.3917254 -2.0181742 -0.56597686
1.3920083 -2.0193384 0.12853712
1.3913554 -2.0191455 -0.47664091
1.3833903 -2.0083365 0.21335725
1.3846736 -2.0109506 -0.38670605
1.3779744 -2.0012212 0.29833618
1.38888 -2.0178137 -0.30077356
1.3694152 -1.990278 0.38263875
1.3865039 -2.0158679 -0.2140545
1.3625455 -1.9817747 0.46748206
1.374481 -1.9998821 -0.12717639
1.3672346 -1.9900824 0.55742878
1.3905287 -2.0239885 -0.042863112
1.3594155 -1.979442 0.64342415
1.3741136 -2.0068421 -0.6517064
1.367793 -1.9983596 0.042269729
1.3832188 -2.0216534 -0.56552702
1.3691616 -2.0011082 0.12707172
1.3798653 -2.0175076 -0.47511441
1.3786204 -2.0164425 0.21370588
1.3731872 -2.0092483 -0.3854546
1.3661509 -1.999702 0.29736122
1.374758 -2.0130548 -0.29931113
1.3580034 -1.9885211 0.38138729
1.3749657 -2.0141137 -0.21335725
1.3511928 -1.9800321 0.46595559
1.3663663 -2.0030179 -0.12707172
1.3547902 -1.9867927 0.55517924
1.3721894 -2.0123086 -0.042514063
1.3503218 -1.9809825 0.64238888
1.3605847 -2.0020397 -0.64860052
1.3566626 -1.9962684 0.042130109
1.3732219 -2.0213933 -0.56417727
1.3520696 -1.9910047 0.12612967
1.3595827 -2.00282 -0.47053501
1.3648608 -2.0113506 0.21266
1.3609707 -2.0056181 -0.38389024
1.3595122 -2.0042212 0.29736122
1.3658468 -2.0143166 -0.29882365
1.3410789 -1.9785327 0.37857145
1.3612212 -2.0090041 -0.21231139
1.3446195 -1.984502 0.46595559
1.3529962 -1.9976159 -0.12644368
1.3416389 -1.9815922 0.5524798
1.3550694 -2.0021818 -0.042199921
1.3379861 -1.9776837 0.63980073
1.3388106 -1.984121 -0.64135361
1.344095 -1.9927027 0.041955583
1.365068 -2.0245585 -0.56372738
1.3451116 -1.995712 0.12612967
1.3496418 -2.0024335 -0.46939012
1.3437108 -1.994385 0.21039395
1.3440304 -1.9956105 -0.3810744
1.3502905 -2.0056615 0.29687375
1.3599156 -2.0207191 -0.29906741
1.3286512 -1.9750071 0.3770071
1.3434303 -1.9969758 -0.21056828
1.3267285 -1.9728922 0.46213943
1.3437865 -1.9990115 -0.12623434
1.3303663 -1.9797935 0.55068022
1.3413818 -1.9969397 -0.041990492
1.3181515 -1.9630961 0.63358909
1.3297266 -1.9855721 -0.64031839
1.3282317 -1.9840888 0.041676346
1.3471549 -2.0131156 -0.55922836
1.3370266 -1.9987352 0.12602501
1.3339111 -1.9940779 -0.46633717
1.3278812 -1.9858136 0.20899945
1.329372 -1.9887941 -0.37888432
1.3344585 -1.9971582 0.29492384
1.3484433 -2.0188508 -0.29809242
